# 3D point list with one line of data per point:
#   POINT3D_ID, X, Y, Z, R, G, B, ERROR, TRACK[] as (IMAGE_ID, POINT2D_IDX)
# Number of points: 343, mean track length: 4.7380740260792091
22340 0.5947788540951181 1.2454318452020712 2.6260137458128394 202 172 118 0.27670739835253516 41 4078 54 4988 126 2247
22341 1.6476801245573252 0.42079071681655977 2.6949014249633869 96 80 73 0.20271548017139726 45 1344 54 5043 53 2874
22342 -1.3294259184171981 1.3436143434500432 2.6027980298781719 198 169 129 0.92199576100754255 137 2132 174 1795 54 5075
22343 -0.54725408336400305 1.2139327486471185 2.7311142914331072 209 178 132 0.92735321471913235 174 1087 54 5087 175 1289 118 1156 123 2955
22344 -1.2139535164271487 1.2124532365739016 2.7635820462399661 176 147 103 0.72447995637381446 174 1791 54 5143 49 3337 123 2920 118 1083 124 3249
22345 2.293476155804238 1.5830776000147044 1.222612882852679 58 49 42 0.55627484131965843 41 1222 54 5302 53 3928 122 6581 121 4092 52 4271 51 2747 118 4625
22346 -0.35413431125667894 2.2915459512056318 1.3225799104334968 145 116 76 0.91327788906579377 67 4294 54 5347 124 3014
22347 -1.4232031257083588 2.3962532745738261 1.2826087359149743 162 135 105 0.76192756318996702 55 2604 54 5360 124 3660
22348 2.435571905983962 0.56010359622022421 2.1949279995698814 8 4 5 0.49192965768341201 41 3668 54 5416 53 4061 122 7605
22349 -0.04034228492781157 1.5689730721362987 2.1011132357313249 170 130 65 0.58871955862499847 55 2384 54 5435 123 3439 122 7748
22350 -0.26361625481127265 1.5592026225560138 2.1875185174023897 226 214 200 0.98393622634439204 72 3676 137 2276 54 5455 49 3230 37 1209
22351 1.7331195899493665 0.55840437338151017 2.4809185094396016 53 40 32 0.061553121461992877 41 1902 54 5476 53 3599
22352 1.7786735247734431 0.4297336632133929 2.6044957502602397 80 66 55 0.063516898704008187 44 3364 54 5492 53 3644
22353 2.0065660622270611 0.28220093619632336 2.7525091055653412 10 3 0 0.68554099953583592 41 3843 54 5512 53 4163 122 7760
22354 2.0961301884588694 0.17710814341193232 2.9568625652472158 72 58 47 0.63048054046793367 41 1924 54 5552
22355 1.7460465741248918 0.30752950121075939 3.0305845396346149 14 4 0 0.598546402721153 41 4719 54 5557 121 5171
22356 2.7656985046083875 1.5801350601791153 0.9723716259700399 82 73 68 0.27276956857061441 41 3443 54 5608 53 3895 122 4888
22357 2.3236091903666938 1.5778523884193083 1.2396406296005804 13 5 0 0.60955244478037185 41 3596 42 2427 54 5620
22358 1.2541762681274504 2.1540340631942403 1.4598497607337535 216 193 152 0.58311922703273189 42 3733 54 5643 35 2740 49 3469 122 8063 53 4306 123 4149 124 4410 120 2017
22359 -0.42461511458860746 2.2669053720818182 1.376607744189708 151 119 78 0.98426647615514473 128 1248 54 5656 53 4527 52 4799 122 8089 118 3868 123 3968 124 4254 50 4733 51 2873 117 1928 120 2013 125 2035 158 2594 116 1399 126 3182 127 2099
22360 2.4433704529689129 0.63208366911624325 1.8766150163603432 4 0 0 0.68691728214892933 41 3599 54 5677 53 4312 1 4056 121 4163 50 4248
22361 1.7671990676581582 0.58011748847822031 2.4525232654657683 75 63 51 0.32873732582671666 41 1879 54 5731 122 7706 53 4107 119 5039
22362 2.1034502014923011 0.21613042427661661 2.8314217651474012 64 52 40 0.42777543493019138 32 613 54 5761 53 4578
22363 -0.70089079445064228 1.9849088650625595 1.7598710115985003 203 165 110 0.80390981784802085 55 2967 54 5860 53 4341 52 3842 119 4347 118 3904 51 2579 117 2515 151 1280 158 2615 126 3412
22365 2.6621016800292225 1.5358795432560814 1.3526886380252012 63 59 56 0.76856461645735408 55 2904 54 5940 53 4501 120 1889
22369 0.19662092413584131 1.4663581802524708 2.2662547295235909 0 0 0 1.328203405668452 66 5807 67 4433
22372 2.4345493603650472 0.68558464497984184 1.8121659449375978 10 9 8 0.65582057713996933 41 5562 54 6042 40 3042 53 4722 121 6159 52 5248 118 5502 50 4824 51 3216
22373 2.4120983470015873 0.66242352287477657 2.3855681721249096 13 9 6 0.71388061060518626 41 5572 54 6052 121 6189 122 8578
22374 1.7444870671603603 0.44535942443269616 2.6013212820987737 76 62 51 0.5515154843139114 44 4962 54 6055 53 4669
22375 0.98625810683826576 2.0717039672698387 1.5397837165541359 212 192 150 0.86095802681621114 41 5795 54 6078 122 8666 53 4727 121 6306 52 5266 119 5720 118 5601 123 4387 124 4617 51 3431 120 2201
22376 -0.60076560442322968 2.1413794715866947 1.2748641194463797 195 175 147 1.6960542083907306 67 4456 118 5653 124 4651
22378 -0.78704701867574212 1.8435103475244581 2.0063835656869728 0 71 147 2.1394991390910758 67 4451 54 6139 125 2241
22381 0.79627313679668277 2.0718586085546455 1.5475353072728271 228 206 167 0.78773010168699353 54 6189 118 5744
22382 -0.8575872559094242 1.8546220392171295 1.7926419359378549 195 163 116 2.2199503201177335 68 7245 54 6202
22385 -0.5890382729665381 1.7784349386312295 1.9704282097462744 190 163 128 1.9662135899503639 54 6217 53 4902 123 4535 124 4747 120 2380 125 2375 127 2473
22386 0.29048497163189724 1.0918126172775635 2.972037710583106 106 96 87 1.769306366127215 55 3310 54 6226
22387 2.2456699576983983 1.7291149002665467 1.3537111694727864 36 25 19 0.84529428520323446 54 6229 33 1577
22388 -0.54989293556939944 1.826890779822067 1.9169765558366125 151 161 171 1.5142366998918986 137 609 68 6390 32 1169 54 1303 2 4763 66 5531 65 3019 67 4252 35 1103 174 1018 36 2581
22389 1.1411587169197994 1.981966762353041 1.6723608932134555 155 108 21 1.0664109499543533 140 4976 137 2717 102 5627 99 4679 100 7141 60 167 97 3022 92 7411 83 8547 55 614 43 2085 42 1578 41 2004 54 3521 105 5435 104 7965 138 1929 106 3984 129 2907 108 1028 53 2516
22390 0.67875946592817482 1.6114343034305598 2.1593042158165345 194 170 123 0.51862948827803146 55 923 41 2408 54 3774 140 5995 139 5779 137 3209 62 3788 72 3709 99 4911
22392 1.1877998597120822 1.1823132096489073 1.9332868054143462 192 193 196 0.092399517321102576 42 1534 55 751
22393 2.1707982709533766 0.39681389683874291 1.1763998283990016 127 106 89 1.2970800487442247 42 3592 54 5616
22394 -1.4083329441687293 1.8600674481744286 1.7684993251791055 230 230 222 1.856015289634493 55 3306 54 6215
22395 -0.12940016169108493 0.88215356935960143 3.1380261693745175 207 176 129 1.5615993949793743 54 6218 40 3537 48 4084 173 2773
22396 1.0511358187565056 2.6314996775988706 0.87432592725222802 185 165 133 0.18855914230758314 43 1906 47 525
22397 0.63998552491834459 2.0162085913959964 1.6288914684766229 213 182 128 0.46119333240210419 42 1721 47 664 40 995 123 1317
22398 5.0404322991742108 8.880272060744705 -2.0490373640679502 129 129 129 0.40313220477099537 31 609 47 903 48 127 41 1051 36 2292
22399 5.0499120857131743 8.8927674876190483 -2.0543926802312895 129 129 129 0.11995527417959388 31 610 47 904 48 126
22400 3.3154790528870439 7.5989161610854499 -0.52918811909135566 152 154 153 0.87617883733681945 41 1559 42 1098 56 366 47 1050
22401 0.92771667156732762 1.777845214210213 2.0686746099547721 188 159 116 0.67059379833167465 31 1378 47 1102
22403 -0.69531333360705683 2.0385158499234981 1.7387293943207196 186 160 117 1.5921403309063196 180 1037 47 1153 34 692
22404 2.6512522988321248 1.5208966830572601 1.2433796792712999 46 37 38 0.1982733882241404 30 372 45 1919 47 1198
22405 6.8176694594237173 8.5805235877087114 -1.7336137190063849 54 64 76 1.5776495429789845 45 3588 57 498 47 1203 179 624
22406 6.2673979561739719 8.6436648481004426 -1.8840906142512306 170 171 166 0.20605562772094077 45 3592 47 1210 48 3142
22407 2.3112859238638239 1.0578036718891899 1.9850677451433583 12 7 4 0.14836784562159805 45 2144 47 1266
22408 4.3597693600779985 7.9696076760590886 -0.9039630493545131 141 141 141 0.15333651634209633 31 1745 43 4383 47 1276
22410 1.097810229532411 2.5339464330711494 3.5044858227228248 255 254 243 2.4815804016083924 32 1797 47 1372
22411 6.8334922709061718 8.446757520234355 -1.6694522159367153 66 71 71 0.86192863826683652 56 1143 57 2083 47 1414
22412 1.9860810838811953 1.5386984428512787 1.4109455716078354 59 45 32 0.5700656587482299 32 1556 45 3374 47 1450
22413 5.83819746166155 7.2285024487062737 -0.18807468500619032 138 139 136 0.55306645148688427 45 3628 47 1452 46 1349 42 2313
22414 1.886021139826682 1.5184135317490088 1.4729244902335306 49 39 29 0.50891502497058194 171 1771 173 1270 47 1456
22415 1.7035754308665851 2.3491603582905993 1.1453369240435969 133 108 77 1.252709463100983 45 3400 172 1705 47 1473
22416 0.53556234420888194 2.0249442438669507 1.6598874045141412 195 162 108 0.31345756922334767 31 755 173 1377 47 1528
22418 -0.17811397144707902 1.5013224565850738 2.1817203468972934 142 96 21 0.47718815360305628 31 846 47 1551 58 574
22419 -0.4462133798482702 1.7666063387615876 1.975912032734261 164 151 137 1.2918462342008286 42 3477 47 1555
22420 2.348335795550025 1.7989355002775318 0.8954576854605989 43 29 16 0.41843287088650266 173 1229 47 1581 46 1535
22421 2.239008346810575 1.7755242816221433 0.9250984869566462 78 64 53 0.86474567647610157 180 1718 47 1588 46 1717 34 1910 58 938 29 1394
22422 4.6342435514361595 9.7616880277380691 -3.3051754103422941 92 85 75 0.63357963647406312 41 4475 47 1595 48 3439 35 2641 36 2261 37 2330 49 2268 122 4770 52 2508 119 3057
22423 6.4334339119405577 8.0137377388987225 -1.1416442365993003 164 165 167 0.2952653463477663 174 2331 47 1602 46 1711
22424 -0.4318386611722872 2.1108889654615073 1.2026332741829791 129 48 44 0.51170871662682582 32 2150 47 1677 46 1781
22425 0.17357513808568226 0.74725664304062211 2.5582264056803061 90 66 32 0.81392683856043824 171 1225 47 1688 58 803
22426 -0.22098234636264202 1.5393333088188459 2.151796981183776 165 123 41 0.53471767798798353 69 6543 47 1694 58 830
22427 -0.70536942228938659 1.839673024505694 1.5957706472428836 101 70 37 1.201017753841586 32 2374 69 6569 33 967 34 2366 180 2427
22430 4.5580573104190929 9.6961240039236749 -3.1564787350265076 146 146 146 0.88568853478552534 41 5379 47 1739 33 1117 35 3220 40 2504 121 4756
22432 1.6260903773017297 1.7896485433989098 1.2186734558501608 57 47 37 0.3451211569965183 44 4952 45 3830 47 1755
22433 0.43226552185566225 2.0855710758527577 1.506476437979245 130 101 60 0.57042964621913317 180 1781 47 1796 33 1044 34 1960
22434 0.7134174038517973 1.6693048088539295 2.123526489210644 210 181 127 1.9116615563740345 56 2055 171 1276 47 1803 175 1756
22435 6.7675214395971013 8.3540905072178333 -1.6936371358620996 60 62 59 1.1661003598381832 44 5024 56 2289 174 2570 47 1837 175 1421 179 830
22436 4.6101125518447974 9.629867538185497 -3.4498341970145687 44 37 22 0.81487808248983984 41 5544 47 1838 175 2054 56 2390 34 2119 36 4022 40 3026 37 3931 49 3791 38 2255 1 4677 39 1817 122 7938 121 5824 52 5048 119 5445 120 2095 176 995 178 1896
22437 1.0337105637296378 2.5675195666099384 0.88149900511439983 222 218 222 0.63276463341303291 173 2178 47 1853 33 1141 46 1946 44 4971 34 2149
22438 -0.5701754506636153 2.2766959460762273 1.0659889361522636 203 173 123 1.108345699163785 32 2365 48 3678 47 1880 175 1739
22439 -1.0227146435011711 2.3386178880106123 0.98247515743163416 177 161 145 0.50334052966610876 32 2376 47 1891 48 3567 33 957 46 1978
22440 -1.0325743784534824 2.2628020045111605 1.0336833289829923 185 161 125 0.83792295624483248 56 2067 47 1898 48 3695 35 3325 36 2413
22441 -0.70916438079369248 1.8343381911809069 1.5360475730607286 91 25 6 0.39761530854382304 32 2540 47 1899 33 1069
22442 -0.94442806973646765 2.2001340695810621 1.22803289722928 185 153 103 0.59104090964242995 32 2553 47 1900
22444 -0.96219638644925509 2.2252574822692122 1.0776018288044789 195 170 132 1.1614509304005742 32 2546 47 1951 48 3797 33 1181 34 1975
22445 1.0373325472087873 2.9400145455559197 0.49387397614261824 226 200 151 0.57485429468039706 32 2741 47 1973 33 1252 45 4059 46 2009 34 2318
22446 0.86808921861411292 1.8989339403407983 1.7741145145606381 205 174 119 1.0283930200620015 180 2396 47 1980 34 2483
22447 -0.63327582495663148 1.6337676768420308 1.3741224613978313 198 166 117 1.0280254443664927 32 2680 47 1989 33 1180 46 2078
22448 -0.90896468788178186 2.1654820880895302 1.5866066065201923 220 173 107 0.57325638412284263 32 2768 47 2001 33 1294
22450 -0.48463813887520624 2.1368643155962497 1.1230796194340988 124 75 36 1.0314210918057358 45 4114 47 2029 46 2118
22451 -0.61828216237033007 1.8698816156289564 1.242305402169728 169 139 89 0.79465990967236644 32 2834 47 2030 33 1367
22452 -0.59282699654580684 1.8116283845716372 1.4063553043722843 89 36 2 0.49903960535302982 32 2835 47 2031 33 1369 46 2153
22453 -0.028341554497582473 1.4189886146936053 2.380895235456812 255 255 253 1.5534842334575265 30 2503 47 2065 48 4019 42 4418 33 1432 46 2125 175 2444 34 2607 127 2382
22454 -0.4880559523164778 1.8320855612923921 1.2592661998609134 216 181 124 0.65399583197555344 32 2965 180 2702 47 2112 33 1527
22455 -0.68567174548624987 2.3716060774720886 1.055620405030637 209 181 133 1.4810762500713761 47 2126 33 1545 46 2199 175 2522 34 2660 176 1693
22457 1.5830304796302761 1.8268924253409751 1.233286889746237 11 2 0 0.71087481624511029 171 1818 172 982 30 561 57 504 31 499 43 3229 47 1273 44 3280 42 1200 45 2924 28 204
22458 1.8141992896008188 1.5418197926112183 1.4537095806973255 43 35 28 0.66189361814938474 30 486 88 8134 171 1780 57 1382 47 1459 55 2530 173 1275 42 3693 56 1684 174 1503 54 5637 1 3623 52 4754 50 3810 51 2418 53 3968 58 499
22459 1.5005665167356499 1.8295971584783339 1.4397966069643451 50 43 37 0.2781963467340407 172 1680 30 1268 57 1423 47 1487 55 1652 43 3293
22460 2.3323652722205419 1.6338781396259889 1.1433030148302619 68 55 45 0.96537813182966126 55 2726 44 4761 45 3646 47 1593 173 1242 56 1969 174 1960 46 1721 34 1654
22461 2.4670636950682279 1.1321173222762846 1.5934038138946891 3 1 0 0.42120936759660638 30 1596 57 1774 31 1203 47 1598 171 1720 172 1553
22462 2.0557074667554822 1.6447102605463344 1.1904099834862278 71 58 45 0.39267760423700226 171 2198 172 2019 31 1663 45 3663 47 1606 173 1601 32 2018
22463 0.10833969029380718 1.3286413627976095 2.4017573022721423 183 146 86 0.68946206917142738 171 1886 57 1543 31 1415 30 1348 32 2149 41 5229 42 4028 47 1689 69 6538 59 1395 45 3762 48 3702 33 874 46 1791 175 1578 34 1820 49 3726 58 566
22465 0.30182990638728441 2.1800721640836001 1.4698250266886037 216 183 132 1.0194015525573401 55 2779 43 4839 44 4994 45 3864 47 1799 172 2408 173 1961 57 1901 31 1780 30 1352 56 1793 174 2096 180 1783 48 3672 46 1877 34 1710 35 3331
22468 -0.77140911962914815 1.816191254046494 1.9859909680030068 5 48 102 1.6884997165209403 68 7225 69 6679 67 4452 47 2092 57 2729 180 2429 33 1478
22469 1.1641888303284214 1.9033186946052361 1.7696133009224129 181 131 48 1.0835815128843642 83 8530 92 7545 110 3048 111 3290 128 1110 55 2274 30 661 31 669 32 914 43 4115 44 4576 42 3358 45 3468 47 1321 87 9503 129 2994 109 4533 17 2385 105 6253 104 8443 140 7033 138 3007 101 6588 102 6006 99 5230 100 7234 60 2835 106 6270 97 3295 59 1220 93 4928 164 1378 171 1257 34 1061 122 7629 52 3795
23844 -0.4782599496129758 2.027211850232951 1.699702730565446 209 176 124 0.52617459987580972 55 2335 42 3471 41 4824 56 828 54 4818 35 2152 1 4305 174 2137 175 1554 49 3722 122 7689 53 4053 52 3830 119 4340 118 2801 123 3378 124 4069 151 764 158 734 115 447 126 2086
22470 -0.45361625285619711 1.2806803544455112 2.6375583332216443 206 176 126 1.5072626596804133 30 2611 47 2047 58 1640 29 1996
22473 1.095570052074061 1.5299623891545993 2.252532187226636 210 179 135 0.13972128426235811 41 2229 48 545 49 559
23848 -0.026082207131779285 0.96772754878381739 3.0113712679288867 160 136 100 0.45284872643234175 38 1860 1 4588 50 4787 51 3341
22474 -0.95176356845887189 3.1209290640322922 0.32098329379825696 202 174 137 0.32675131089045778 55 235 48 643
22818 -2.1087582009682051 1.3097372196385775 1.2187072599688218 201 186 165 0.66676225960350322 56 2259 34 1828 35 3764 37 3141 36 3721
22476 -0.32699550342264794 1.2416513351343088 2.7049243316997544 175 147 107 2.1688441495065298 54 2281 48 1159 49 955 124 2037
23843 -0.71852133135987317 1.1539825255725651 2.8065866968779147 218 192 158 0.96383808464627618 48 3379 175 638 37 2636 36 2771 1 3941 71 3928 102 4165 72 2757 5 776 140 5925 130 2335 79 3160 80 1136
22477 1.5959031120201872 2.0622525874886475 1.0876330030753758 57 46 40 0.33589237220563689 172 1026 48 2373 35 1874 36 824
23863 -1.2323519398526288 12.460731317034748 -7.2768185014534037 107 123 138 0.85000817600849632 1 4169 39 1105
22481 3.4724401193718037 8.6490064638901867 -1.7541269749510167 134 140 146 0.4507499507187413 41 4566 48 2478 34 933
22483 0.43724103843189166 2.0333566015751758 1.605409197504907 197 171 134 1.1605735830141419 43 3531 48 2575 49 541
22484 -0.41978565977549853 2.0782980252995222 1.1237261976345239 137 76 81 0.25946643220817317 56 603 48 2597 36 991
23860 2.465590216936373 1.6190658674403231 1.1213353389788376 66 53 39 0.77140597429404378 1 3501 38 1235 39 1070
22486 -0.054339765129410508 1.5278554287138859 2.1573662671218679 162 130 71 0.75266759450359211 180 317 48 2683 172 1176 34 1532 49 727
23864 1.71672044977683 10.159096255305318 -3.8621068202556295 148 152 151 1.1958221646221698 34 1894 38 944 39 1124
22490 1.498634023699855 2.0059506143937771 1.4669611467012846 30 25 21 0.19816661669678895 174 667 48 3189 49 3092
22841 -2.2643286874521595 1.3168929143039876 1.2270578380966519 177 167 156 0.62063945732982562 175 2143 34 2402 35 4266 36 4557 37 4229 38 2290
22491 1.3851097816920992 0.72910819824533779 2.5293153147717988 12 3 0 0.18630955332131491 43 2103 174 698 48 3218
22834 -2.1908696041012248 0.96967450686272538 0.30401255083350909 190 197 215 0.75516346532131029 31 2563 33 1281 34 2334
22492 -0.39522555645763718 2.0998352302604322 1.135755011864902 113 41 45 0.26225155434529129 56 1389 48 3283 175 349
23859 0.081715601154466591 0.44121246374261414 3.6501316028308959 224 188 128 0.2384811163392887 1 3962 39 1016
22493 -1.2818452822053377 1.5883229014300646 2.3732389078005149 206 178 138 1.4363101669275637 174 1177 48 3390 175 628
22494 -1.2926374830242862 1.4869288752025489 2.4117090891121489 168 139 97 1.5085653443282312 65 1523 48 3391 175 640 36 2743
22497 1.6050652317241547 1.2117063281573521 2.3415444194975579 33 16 1 0.12033846914698114 173 1324 174 1576 48 3485
22499 0.7484751660124892 1.7307522969084501 2.0229300780448249 183 155 108 0.74186879898942881 173 1368 48 3524 175 1525 174 1644
22500 -0.42859854047866075 2.1137105991378231 1.1064995195133154 102 50 52 0.37391577954091709 47 1675 48 3532 175 1123
22501 -0.65031582454231984 1.7485881678598409 1.3998713137082246 147 92 9 0.82798085479381611 56 1831 174 1690 48 3552 175 1168 35 2039
22502 -0.89304406261717661 2.2641095397991116 1.2159347130366334 197 172 132 0.36034142439514727 174 1726 48 3575 35 2044
22503 0.97916925512903619 2.2918144811193146 0.90370688773326979 243 245 249 0.75416876967915769 174 1559 48 3633 175 1066 55 1569 35 1880
22505 -0.62079155255422025 1.9306347238586932 1.4281065223401004 78 23 0 1.4821459807839912 56 2068 174 2402 48 3687 35 4042
22508 -0.91176104627230359 2.1781960227626285 1.1369185781727276 154 130 92 0.24937315810655117 174 2132 48 3798 37 3644
22509 -0.70858959542579614 1.8185520850811325 1.5086482818821716 67 35 30 1.2669375777646485 56 2079 48 3803 175 1764 174 2406 35 3763
22510 -0.70175700137043295 1.980831298015872 1.7619210403823442 199 167 110 0.26411740672036838 56 2246 48 3809 34 2010
22511 -0.20659977201905569 1.1818004099264592 2.6834031111780656 185 161 121 1.5748681189944966 173 1705 48 3820 175 1997 53 4176
22512 1.5357600845211674 1.2512822694222869 2.0648109374992187 125 104 72 0.4096152640041843 174 2870 48 3835 175 2435
22513 -0.44305649338937714 2.1508153361576796 1.1405055455903055 125 76 75 0.67048348101020261 174 2387 48 3851 175 1736
22514 -0.53403873139073921 2.2488809523671596 1.069096171082379 107 49 54 1.1056542859055858 56 2331 48 3852 175 1737 40 2635
22515 -1.1317252206669994 1.6628612121413175 1.8259950761880592 190 165 124 0.89352904768897512 174 2439 48 3888 175 1808 35 3806
22516 4.0532701471703749 9.6770597758506849 -3.7160016210765763 71 74 81 1.0769674195635828 56 2475 48 3892 175 2230 34 2301 41 5778 36 4319 40 3183 49 3886 38 2252 39 1814 122 8518 121 6108 52 5232 119 5593 118 5462 120 2092 178 2066 177 998
22518 1.3807732862160866 1.4976701463609083 1.741287108939344 1 1 1 0.14615330124081308 174 2750 48 3942
22519 0.018567125655371941 0.72153718262182998 2.5530569750947611 88 67 55 0.66126424059088695 173 2339 48 3955 179 995
22520 -0.73638172858139173 1.8493649705542177 1.4181025704835142 67 21 0 1.2719220657649677 56 2537 48 3983 179 1211 173 2665
22521 0.060055031243518672 0.42063377617598363 2.5691096650216543 155 145 135 0.55599196439286025 173 2493 48 4016 179 1085
22523 0.090554790434127605 0.70189470558991107 2.4813012128230585 203 173 123 0.60834714300095893 173 2657 48 4035 179 1209
22524 -1.8086003043540997 1.8608496553013385 1.9802508972554942 133 107 74 0.66230470253593365 56 2597 48 4042 175 2453 35 4539 176 1579
22525 -0.45985605770210869 1.9760395334093315 1.6021435063913605 198 168 121 0.14406261962498995 56 2585 48 4047
22526 -1.1952273424179638 1.7314904714389625 2.0082627160545314 133 110 78 1.5648124524859028 55 3294 48 4064 40 3536 1 5076
22527 -0.46106489686558894 1.9297208852020031 1.6678812291197871 204 174 124 1.9203511459244165 48 4069 175 2551 36 4894 40 3529 37 4775 38 2751 39 2254 176 1714
22528 -1.1821219030928338 2.2517153672130634 1.0899610172697667 231 227 218 1.1364574136421925 56 2638 48 4070 175 2525 176 1697
22529 1.3795467823762868 1.3047397771117739 1.886752996241051 160 141 120 0.96787309728958559 174 3144 175 2550 49 4170 40 3525 176 1736
22530 -0.46398809098439431 1.7744086305918809 1.9879844548411343 229 228 218 0.80870308762100707 69 6379 32 1155 56 884 174 1012 180 390 173 1433 31 1450 30 834 48 3325 55 2387 41 4849 34 1223 35 2230 36 2589 49 3227
22531 0.67678531045337487 1.818972452029022 1.9181160430067836 226 219 214 1.4292821802599083 172 2805 57 2520 31 2422 32 2667 55 3045 43 4927 44 5135 42 4243 41 5718 45 3961 56 2210 180 2222 48 3770 56 1805 174 2092 33 1165 33 1268 34 2347
22532 1.5349916830369863 1.7619007884199755 1.4451774857018067 23 11 5 0.6879005856274375 87 9282 88 7974 89 8244 30 588 43 1747 48 3170 55 1651 56 373
22533 1.4847556316258823 1.9053503144360382 1.4598537778226046 29 26 26 0.74055383647423245 30 1272 57 1434 31 1328 48 3180 87 9497 180 216
22534 1.5288316812754528 1.8089259564840166 1.3664613099526781 23 11 5 0.45534153046614562 55 2217 41 4635 56 1240 174 1529 48 3445 172 1667 57 546
22535 -0.010541955655315002 0.92195008210606111 2.9746615159341316 149 121 93 1.0852438959380521 31 1427 56 2106 48 3603 171 1277 172 1145 173 1404 57 888 32 1817 33 505 46 1287
22536 1.4434517734972065 0.66545934171852739 2.537404864415028 41 31 20 0.36745048857753393 55 2832 31 1304 48 3647 171 1756 30 1240 43 4471 44 4560 41 5168 45 3456 174 1569
22537 -0.021280657242162604 1.5181089943231592 2.1544553410456864 58 42 26 0.93970507751000387 68 7203 69 6646 55 3180 57 2158 30 1729 31 2248 32 2676 42 4353 41 5808 180 2036 54 6142 47 1948 48 3918 173 2191 56 2239 174 2619 33 1284 46 2076 175 1963 34 2380 35 4076 40 3239 49 3930 123 4441 120 2312 176 1361 58 995
22538 -0.99247121826863427 2.2479125587060049 1.2087616992483095 146 119 84 1.4404598532107402 32 2914 56 2586 174 3088 47 2104 48 4049 55 3261 33 1471 46 2181 175 2488 34 2593 35 4501 36 4841 176 1629
22539 1.4766733806829937 0.90042494473838908 2.3884576786537508 69 60 52 1.518740809103392 172 908 57 1443 42 3748 31 1715 45 3846 56 2032 180 1742 47 1657 48 3645 55 2620 43 4464 46 1861 29 1399
22540 0.056361983052883494 1.3519556146302476 2.3899981709921039 168 124 65 0.66819300798842962 48 3706 56 2086 172 2099 173 1695 180 1399
22541 -0.51322320890625961 2.2765414753312587 1.0193065250833133 219 193 155 0.72422562437906046 48 3778 46 1967 175 1731
22542 1.0431151920092201 1.1644087201432309 2.8360616006496406 224 198 141 1.1468790917784941 31 2786 32 2995 33 1567
22543 0.33952123592104805 2.1417946229951852 1.4817094875584551 206 176 139 1.0116386350025162 8 3137 9 3221 10 3457 6 3304 7 3145 19 994 16 484 26 2094 25 2294 24 2034 23 1136 140 7048 138 2889 137 4128 60 2940 59 1434 30 1719 57 1898 172 2102 31 1779 32 2127 45 3509 174 1647 47 1532 48 3519 55 2272 43 4514 44 4608 41 4738 35 3330 28 1486
22544 0.97747990959712328 1.9920228711867765 1.6656657036368405 143 105 39 1.1299909259790295 6 1368 105 5970 4 4820 83 8545 109 1208 104 7977 103 9823 138 2703 24 1083 137 3335 139 5896 101 6462 102 5620 100 7129 97 3234 59 281 44 3499 42 2770 54 841 122 5544 52 1108 119 873
22546 0.17928197344119107 1.2459990609088905 2.5335224805981595 131 103 58 2.4693021426001276 171 1281 30 1338 57 1932 32 1067 56 1514 174 1703
22547 2.1981977644010824 -0.029015048644510252 0.73400847063313757 153 128 95 2.1314483750773685 32 59 171 589 33 31
22548 6.0576810536663874 7.6248913644206526 -0.52650182931906719 18 25 29 0.45217490841478503 31 515 33 70
22549 1.5923636253531448 8.4114353250268632 -1.6809576092340057 118 122 125 0.10662471572203772 33 131 123 655
22550 1.6018260104095772 8.4870574059045119 -1.5925889706355412 96 97 101 1.4254173620598234 48 2546 33 142 123 702
22551 1.7668538880523195 1.5812460249036053 1.8105837929020985 97 83 51 0.64683210771802913 55 2256 33 278 42 1336
22552 1.0519476730983321 2.129188172261363 1.4974529578417126 197 164 117 0.34786791886834134 44 3483 33 296 175 290
22554 1.6449110662257713 1.7991657108756609 1.7564778028064472 0 0 0 0.56144347384417104 42 3724 54 3531
22555 -1.0430366247536238 2.2421490030295836 1.0444415136967282 174 156 117 1.0163629257515496 55 1736 33 696
22557 -2.1722590564289166 1.110729875421858 0.67365803924564438 164 168 181 0.045858649741757906 32 2430 33 884
22558 -0.031414459480293228 0.96634696543124554 2.9943915749211869 167 136 92 1.0171153008350415 32 2166 33 891 46 1906 171 2865
22559 1.6113192923114374 0.61367234915299584 3.3025831250715285 148 123 82 0.13440248289424753 31 2225 33 1064
22560 1.9355733940291695 1.5543148195401268 1.354486249922112 26 13 5 0.73985502549868221 32 2645 33 1135 34 2145
22563 -2.1725593644633721 0.99486419106227486 0.1840177873263775 184 183 189 0.45188540134359706 31 2282 33 1176 34 2153
24263 1.3730405757307655 0.58294595399338711 3.0369979165551046 26 13 7 0.53416245359205139 54 4391 53 3793
22565 -0.34506089409354868 2.230050018479627 1.0104257401099181 210 181 125 1.5912066451116766 47 1984 48 3845 33 1266 46 2117
24256 0.12357660197202448 0.47647636436837726 2.6093372481930821 203 198 194 0.52900303084268996 54 5132 53 3724 52 4537 119 4440 118 3003
22566 -0.46613751420328703 2.4600170790305338 1.1082316788159823 197 164 113 1.257791345582409 31 2553 45 4032 33 1270 46 2072 34 2482 173 2500
22570 1.1994255664740356 2.6932329150493612 0.73453443390220408 215 182 128 1.5376538306674241 45 4096 33 1343 179 1079
24271 2.6186280429722779 1.5628534500439639 1.4294514531650755 70 60 59 0.61310519788569406 1 4113 122 5132 53 3950
22573 -1.9873784368674166 0.80734366669376811 0.30418861918267337 184 189 193 1.0314384489531234 31 2627 33 1365 34 2470
24264 -0.62726447926134898 1.0045749100733343 2.9845998110605212 218 187 143 0.85497274482513286 54 5197 53 3828 52 4103 119 3623 118 3142 77 6395
22574 -2.1752223896610197 0.89218029644938068 0.50378009896948894 4 30 113 0.66688061473887483 32 2783 33 1385
22577 2.3730066509895797 2.1275123210032643 0.8514406336382615 80 62 41 0.77867409751228334 56 2566 174 3016 178 2361
24279 0.5318583180377684 2.0490611770563207 1.5768690060193391 109 84 52 0.64355160678973344 122 7623 53 4024 52 3785 123 3758 124 4077 125 2048 127 1968
22581 1.9211265416646639 0.054369610204640033 2.6187621570676094 33 16 7 1.2136078979556211 32 2992 33 1559
24272 -0.36251459625293803 2.0878423028365964 1.1338448762633664 127 37 36 0.74992218591999671 122 7573 53 3975 52 4349 119 4245 118 3806 50 3104 117 1888
22582 -2.0682647944579111 0.84933041916874008 0.49208513110190594 235 234 229 1.4644776385091223 32 2988 33 1561 34 2670
22586 -0.87786069717369419 2.0045164799369624 1.5840094413712489 212 204 191 0.92743003312876326 30 2006 57 2188 31 1828 180 1491 33 732 32 2181 47 1706 34 1510
22587 2.7970131756356285 0.37771908106730434 2.3825181643928586 4 0 0 0.87203108260096518 171 1676 57 1302 31 1941 56 2171 174 2562 33 1140 32 2632 43 4891 44 4931 42 4214 41 5693 45 3815 46 1732 175 2068
22588 2.439601751970256 0.14835795765086213 2.8139710844698884 97 84 69 1.253676038667167 42 4221 56 2314 174 2576 33 1033 44 4951 45 3685
24287 0.14945363683970325 1.5388549168790433 2.1790510407734747 122 94 44 1.2796015339685161 54 3831 53 4092 119 4398 123 3802
22589 -0.49869699668183504 1.8777191185865603 1.8821307004167358 198 173 131 1.7563897579778516 137 4243 63 5420 64 5363 2 5822 68 7159 67 4397 130 3731 108 3914 55 2971 54 5867 33 1074 101 6489 106 5848 109 3043 46 2039 34 2013 53 4548 118 5098 52 5127 123 4151 124 4402 117 3140 125 2133 126 3530
22590 1.1046662362948902 2.1259350582273249 1.455707878516447 228 225 221 1.4227984939483558 173 1937 44 4978 45 3847 31 2231 48 3839 33 1150 44 5075 45 3947 175 1920 38 2032 121 5899 38 948 50 1230 176 1176
22592 2.5784352058645998 -0.23803183864646363 1.0394864229085887 8 0 0 1.2771646830377883 42 4312 41 5819 174 2927 33 1398 171 2981 30 2271 31 2587 44 5147 32 2793 45 4041 40 3348 178 2033 179 1115 29 1807
22593 -0.65136030873164241 1.9976377713727758 1.4700591984884035 67 8 0 2.0686735223019355 31 2788 32 2997 47 2130 33 1560 34 2681
22594 2.2533622078316102 2.0859623829420499 0.7824505019480742 63 51 39 0.37226468081230191 44 3021 46 132
22595 0.75107980014996956 1.6209654584007329 1.9514208855059547 199 172 125 0.33454741573311275 44 4191 46 687
22596 0.43491564134269778 2.0290176429183959 1.5916519415336732 201 173 125 0.75834764825738166 45 1519 46 702 125 815
22597 0.34504727294593557 2.0728488232883482 1.6083017087188822 207 174 123 0.93388907459658432 59 452 46 708 70 851
22599 -0.64984460217596085 1.7912509376634438 1.4428823026090574 132 86 34 0.031398144497068452 69 2793 46 808
22600 1.8538047243698494 1.5127663225950103 1.4649076263118368 56 42 31 0.62318148812022456 174 539 46 1394 53 3971 118 3894 119 4297 51 1778
22603 4.1499032395633622 7.212662375233359 0.86226642387047958 136 129 118 1.3078168645633597 32 2321 46 1601 33 218
22604 0.54856322615127284 2.0443364629391301 1.5379661316079907 168 136 88 1.1121013253390213 172 1748 46 1634 175 1498 34 1070 37 2425
22605 7.2214655692687693 7.8004797056248583 -1.2479180124418117 16 22 26 0.61090288414360616 56 1951 180 2201 46 1705 58 1331
22607 1.0531793615298233 2.5604753655326298 0.94095129079022866 205 212 223 1.1358398335633837 45 3708 47 1643 46 1758
22608 0.91940231812736017 1.6759576379588932 1.9757911394327754 205 170 114 1.2825049159529129 45 3736 46 1771
22609 0.35377238920677084 2.1171261631592864 1.4888831154352313 165 134 91 0.55495379970984116 45 3743 46 1777 34 1709
22610 -0.56352814380663119 1.850529807595561 1.9173457365066138 10 61 122 0.5047641115273489 41 4854 46 1801 175 503 55 1927
22612 6.2048835880445328 7.7222749993751005 -1.697065593769441 39 42 41 0.31869542135520301 43 4872 46 1810
22613 1.3245636332037796 2.1679472343152275 1.38363182359221 192 163 105 0.48417184605962954 33 1144 46 1857 34 1940
22614 1.1871461488089514 2.1138478949715629 1.4507601350033554 192 165 109 1.0553441702241906 180 1364 46 1859 175 1918 37 3956 49 3674 38 2028 1 4694 39 1853 176 1175
22615 1.9129042599776547 0.53460613811077895 2.464027675993087 40 24 9 0.25978289387856046 31 1981 46 1943 58 942
22616 1.720778666226952 0.58408727963801566 2.44245599130877 73 58 39 1.0656642162632772 30 1909 46 1947 58 944
22617 0.42100844792595671 2.1106263267262868 1.4238458093526329 214 181 131 1.4541652622787842 33 1041 45 3960 46 1960
22618 0.57121432342383383 1.2193423884513861 2.6946050263952146 239 233 218 1.9800686044200364 30 1701 46 1968
22619 -0.55318347429640835 2.4649983079825737 1.1422256202265553 176 143 98 0.71406845765408367 47 1883 46 1971 34 2175
22620 0.19880050325150939 0.90597134470635743 2.6433174752673345 150 115 69 1.229944629071563 45 3875 171 2251 46 1972 76 5138 75 4116
22621 0.17227316470886445 0.86429278398476517 2.6351906621502388 89 70 37 0.29140604424041378 45 3971 46 1974 58 1163
22622 2.4181075714321847 1.0177110876675808 1.7377040227713947 40 30 28 0.74863540451772803 44 5118 173 2318 46 1999
22623 2.0323510484689296 0.67587111829876656 2.406251868962769 70 54 39 0.33369933905507237 30 1905 46 2010 58 1469
22624 0.35669065844621395 0.58954486093396297 2.5003619259198913 211 179 140 0.61773016740477049 45 3965 46 2028 76 5156 77 6523
22625 0.24176103154902884 1.1325147200866781 2.8156461131808781 191 155 103 0.68008495866676244 45 4034 46 2035 58 1176
22626 2.7140322990091641 2.010287857755479 0.72817252491463602 179 177 165 0.55109633899230503 33 1333 46 2047 29 1981
22627 1.6668237649254201 1.3586939844778547 2.3294173416448518 162 130 80 1.7404184272868388 171 3173 46 2061 58 1478
22628 -1.4872904806629741 0.69920513349662117 0.19410633000357674 89 85 76 1.5087199027626856 31 1764 32 2134 46 2068 34 949
22629 -1.4964249499613793 0.67860016494478304 0.19137768478841924 89 85 76 1.01775837103728 31 1765 32 2135 46 2069
22630 -0.44175834311853929 1.7582304248995098 2.012107824941876 221 219 204 0.76193279647349088 47 1999 46 2083 179 1090
22633 1.3481376904707556 1.4654039830244385 2.2710859713760501 170 139 85 0.85460505331918268 33 1462 47 2058 46 2142 58 1699
22635 -0.1100118417063243 1.4203449540318898 2.5365112202246922 0 0 0 1.244830036484226 32 2985 33 1562 41 5979
22636 1.5698468037256341 2.3330209761738168 1.0491620739234984 188 166 130 1.2786447394470011 171 1857 45 1100 46 405 173 765 47 1280 179 630
22637 6.8321843481127296 7.7488374696434956 -0.85374129248389896 64 70 73 1.3656328529692112 173 1636 43 4319 46 1529 42 3588 56 1961 180 1747 178 1396 175 1028
22638 2.9380051469872446 1.5282985934311839 0.97914767420159099 48 39 31 0.46596221543970373 171 2827 30 1894 46 1921 172 2588 173 1868 180 1969 29 1725
22639 0.89184696354837123 2.3852930572471185 1.092486038486467 145 141 129 1.1476876749098854 31 1364 32 911 33 630 46 1615 172 2401 57 2329 180 1770 47 1773 34 1382 34 1678
22640 1.5139231939757625 2.0027244345681576 1.2963343106376617 61 49 43 0.33590888271482228 32 2067 44 4514 46 1594 172 2057 30 1271 56 1248 35 2709
22641 2.7319458601490276 1.4397546267906081 1.1939488493115658 88 75 67 1.2754204481181028 86 8407 87 8806 57 255 32 1431 44 3814 42 2307 54 4621 46 1528 41 3480 56 153 174 405 122 4971
22642 0.23656696457649656 1.4725358352795987 2.2399008621523082 146 119 72 1.3017029603474501 32 1043 47 1541 46 1656 140 1611 138 2311 139 4212 137 2337 62 3192 62 3746 63 4520 61 3435 102 5138 66 5727 71 4557 72 3770 65 3439 67 4335 69 6482 59 1225 171 1889 172 2092 173 1690 56 1854 174 2394 180 1394 58 560 70 1153 45 3752
22643 0.999090467076449 1.8292108169112922 1.8677504252486075 208 170 109 1.1104125477785018 30 1951 172 2076 57 1878 56 1781 46 2021 171 2863 33 1158 34 1713
22644 2.6854417333507881 1.3173887092657406 1.4656643609772939 27 22 20 1.1102908898193999 32 1458 33 572 46 1541 172 1554 174 422
22645 1.7485481650219434 1.8841701059591247 1.0553805927477764 41 27 16 0.84355590669535963 31 1990 45 3824 46 1739 43 3997 41 3667
22646 2.5219193172429475 2.061766678621622 0.77149602533172013 32 22 10 0.52012200599323311 173 1244 31 1961 47 1719 46 1823 171 3022 172 2601 30 2137 57 2062
22647 1.8847617936101235 1.9515258915502773 0.9790935411692504 22 12 6 0.99309221274903836 173 2151 31 2190 32 2485 44 5049 45 3923 46 1935 171 2843 30 2143 180 2196 58 1321 29 1599
22648 6.77413041369776 8.2068541667974859 -1.2709579272342384 101 106 112 1.1914504146442375 173 2329 57 2312 44 4712 45 3790 45 3900 56 2294 174 2575 47 1734 48 3736 46 1994 173 2484 180 2387 175 2062 58 1483 179 919
22649 1.947040113427259 1.9081812205644781 0.99980040826183136 66 52 41 0.68898464372247004 32 2643 44 5120 46 2001 171 3027 172 2790 57 2672 180 2368 47 1970 58 1320
22650 2.695356294144633 1.3205261602402798 1.3789019379771228 0 0 2 1.2004691186641925 45 4087 180 2592 46 2096 171 3331 57 2889 180 2633 179 1128
22651 0.74036173116119208 2.5484078278592901 1.0023058962609623 222 191 136 1.0976904413639961 26 3904 25 3683 21 4407 24 3249 23 4128 22 2496 27 2711 46 2109 173 2586 180 2602
22652 0.17883692697861103 1.3497508420521862 2.453078266416266 163 132 86 1.3700193713121762 24 3321 59 1939 46 2188 82 7593 108 5421 109 5187 110 3836 107 3491 93 5041 92 7676 81 3686 164 1788 128 1541 145 1760 163 1539 55 3292 172 3192 173 2758 57 3002 31 2759 32 2964 69 6693 41 5957 42 4461 56 2626 174 3129 180 2684 54 6209 47 2115 48 4060 33 1549 175 2537 40 3515 124 4753 125 2382 176 1721 126 3795 58 1782 179 1264 127 2478
22653 0.84663359107216385 2.374572055035439 1.1628300754678418 185 158 119 1.4576155022064592 32 2873 43 5061 55 3208 44 5238 42 4382 41 5879 45 4131 56 2578 174 3035 31 2677 180 2643 48 4003 33 1460 46 2141 172 3147 173 2656 175 2480 35 4498 36 4819 176 1626 179 1207 177 1319
22654 6.800348453448402 6.0598157730809659 -1.7841046497282094 63 85 109 0.1958312575870168 174 375 175 66 178 633
22655 0.97135503297132242 2.2227092300816467 1.2332001003332711 253 249 244 1.0360935980841133 56 1305 175 256 34 1021
22656 0.52990631313666359 2.0381094157534068 1.5784968861912325 168 137 93 0.34942056786611486 172 1143 175 348 180 278
22657 2.0525625148710263 0.52947286545282535 3.4121035525780692 146 132 113 0.070620578157390923 174 770 175 445
22658 -0.49856325980753424 2.0185918928762994 1.6790524901106447 147 115 58 0.61235751703975494 41 4826 175 455 38 501
22659 -0.47007153162155335 1.7731299856464484 2.0067749207438839 86 71 49 0.55969329943704682 174 1015 175 507 36 2599
22660 -0.46823402486044291 1.2562977500840939 2.4533455386726497 84 63 44 1.2347578718242986 175 553 37 2563
22662 -1.2902758445224702 1.7708311627389306 2.0564015385110213 181 148 103 0.53265620008392511 56 1580 175 576 35 2321 174 1117 36 2668 49 3260
22663 -0.22584856779915091 0.88917051951981207 3.130019348432719 222 190 141 0.84232319494048902 54 5218 175 626 53 3161 52 4110
22665 -1.3445854568865769 1.3695759086479118 2.5768167016824135 192 159 114 0.4957791040645127 174 1219 175 681 49 3318 36 2776
22666 -0.80694513285444625 0.90671976990356451 3.1357524438365392 204 170 124 0.6235013316896022 174 1150 175 732 124 2408
22668 7.2001876216134599 6.4263955283921623 -1.7715557936366229 72 99 125 0.61023597229482152 57 1263 174 1407 175 990
22669 2.4623417913801671 0.42460449545315027 2.3654145708216601 33 25 23 0.89499030617943021 56 341 175 1056 39 1096
22670 -0.91587219747129767 1.8268029815171067 1.2082240819545356 221 193 154 2.0529296325003696 48 3557 175 1162 49 3516
22671 -1.0358223985139554 2.3080080359033079 0.98652997696596989 205 188 160 0.30277032393043862 56 1832 175 1163 36 1055
22672 0.174815589929949 1.4931806575171751 2.2209057398409056 92 58 7 0.16224932837214254 174 917 175 1212 35 2890
22673 0.31967815565595981 0.49134948705905024 2.6826979785063867 61 44 21 1.3369940092367725 41 2637 175 1229 49 3533 176 642
22674 -0.57442541923795098 1.6775873299216308 2.1336749780027011 113 132 159 0.24521389423709974 174 1742 175 1259 35 2942
22675 -0.20741183945593761 1.292601180727061 2.6942322942193471 141 107 68 2.1170030755233036 175 1273 179 337
22676 -1.3831353698056175 1.8024544175353407 1.9979359660816758 124 103 74 0.83811141603502326 56 1904 175 1280 35 3474
22677 -0.54717483922028953 1.2143460626264575 2.7295174849390813 217 181 131 0.65250713932255178 54 5086 175 1288 118 1157
22678 -1.3345674673003523 1.5072463305684294 2.4183269865441375 224 191 148 0.78082152939041194 32 1291 175 1296 49 3308
22679 -1.8396186912353165 1.7670466258354089 2.0830558168444049 193 163 123 0.848244867075715 56 1598 175 1297 49 3309
22680 -1.3136826255772869 1.3443897226421206 2.6043187180506502 203 171 124 0.47944864799117248 54 4216 174 1793 175 1301 124 1631
22681 7.4240497277924691 6.5279813968079408 -1.8223499480279226 64 85 104 1.3149876351427578 57 1758 175 1400 178 1103 180 1278 58 476
22683 7.1688976054135889 8.2662988405155442 -1.344240907311923 114 116 116 1.7698354058830548 47 1591 175 1424 178 1601 177 546
22684 2.5900841357697706 0.23720144676368946 2.759918294061833 32 18 6 0.86694659107175587 56 1282 175 1459 178 1176
22685 0.089964570058247137 1.7802125195616878 1.8795923543777411 200 167 122 1.2862351582572136 48 3783 175 1544 39 1438
22686 -2.3469005400151919 1.2219089171177271 0.90843452698296367 195 186 186 0.58768755598565869 33 986 175 1547 34 2021 35 3311
22689 -0.49111249640741739 1.8589488153831351 1.8845701083944006 202 188 170 0.46045224383543903 174 1728 175 1569 49 3549
22690 0.2175040445246989 0.50711675158360681 2.6813949534096189 138 115 88 1.101691999718019 42 3466 175 1575 40 2667 49 3720 121 6035 52 4557 120 2052
22691 -0.48229175034983385 1.7490849313882932 2.0660298446258509 188 160 126 0.51594638072463817 174 2149 175 1585 49 3742
22692 0.16568437495598615 0.5435231652254916 2.7425561934901697 137 102 60 1.1916674503713498 174 899 175 1588 49 3222 1 4329 50 4068
22694 0.11275074707991854 0.7763458119799157 2.8655778634748441 212 195 187 0.39348122438821292 175 1602 53 3046
22695 -0.012563516742651618 1.0171197610487137 2.9776251985681168 160 131 99 1.0151861401680524 56 1897 175 1608 49 3762
22697 -0.65845468043405841 2.126259816600006 1.1484633230369563 210 176 148 0.94957882710515185 48 3782 175 1746 176 858
22698 0.54146851539088459 1.8451982713630655 1.8703597015521174 226 211 186 1.0279717899858103 41 5610 175 1752 49 3511
22699 -0.66316487714275063 1.7718835866852372 1.5060652458816861 100 56 27 1.3284520253401719 174 2404 175 1760 35 3759
22700 -0.85173949520438463 1.8591329079091441 1.4240054037745822 97 52 23 2.8131353522090041 48 3701 174 2410 175 1765
22701 -2.3395563135489641 1.2136396682128943 0.92591478292316431 221 215 217 0.80403409630885181 33 987 175 1767 34 2024 180 2132 35 3313
22702 -1.1603885089665809 2.3488142800977276 1.3227772909697679 177 142 95 0.30940428889159455 174 2643 175 1778 1 4566 49 3732 50 4486
22703 -0.18743208902874067 1.4723076294551396 2.2358333868431406 174 127 57 0.25662834242946064 175 1795 35 3818 173 1969 36 4146
22704 -0.56976691824503667 1.8000255380298729 1.9403655441805043 222 208 181 0.60320033230546621 41 5488 175 1796 49 3740 37 3702
22705 -0.69955118459139931 1.7370422778305232 2.0280972660830692 7 64 133 0.84480609307724897 41 5493 175 1806 36 3789 48 3595 49 3749
22706 -0.70608777768000308 1.7397795459056515 2.0253674982529009 7 64 133 0.832892565118865 41 5644 175 1807 49 3748 37 4026 124 4270 54 5712 151 1284
22708 -0.04022746247487087 1.2079858524448928 2.7151238821188688 178 145 100 0.21269910749122567 174 2141 175 1818 49 3869
22709 -1.2675223912920548 1.6570623773772426 1.9594136987871633 145 121 95 0.59776865985810501 56 1898 175 1819 35 3462 37 4030 49 3871
22711 -0.014082303038061614 0.97109752677105454 2.9726359498280273 104 77 49 0.51950808949302385 174 2634 175 1823 49 3872
22712 -2.0003778481758183 2.9763347572109895 2.2211038362615962 97 70 40 0.8465598453819364 56 2117 175 1838 37 3780
22713 6.5628522248022634 10.694762942707763 -4.5908689667428035 101 101 101 0.47708889689745687 174 2309 175 1873 35 2593 41 5002 40 2471 38 1304 1 4124 178 1741
22714 6.4048266559028244 10.909619682520107 -4.5033883022993697 83 83 81 0.68152010104920324 174 2316 175 1874 56 2134 178 1744 177 995
22715 3.8858880739588204 9.9466381401067672 -3.8845276356723271 73 74 78 1.1282472117843729 56 2287 175 1884 34 2116 178 1898 177 898
22716 1.8344623793856079 1.4769460176417932 1.364613137275466 23 12 3 1.3927957294679663 174 2572 175 1898 49 3784 178 1759
22718 -1.9363442620145745 0.92503291883054106 0.54760739051120977 192 180 166 0.59051228610132112 32 2572 175 1909 36 3607
24102 2.0646297378255025 1.5144928241229947 1.4374765082046035 77 63 50 0.77979054873299269 54 5824 122 8030 53 4508
22720 -1.9542137201189644 1.0644365050865061 0.73019214247046427 217 204 196 0.66845915754350882 56 2220 175 1924 37 3542 38 1726
22722 -0.079434168087163373 1.5958533515641038 2.0703922032915298 243 236 211 0.48254235653432398 174 2401 175 1961 35 4069 36 4387
22724 0.11546285912813616 1.335453444144344 2.3098008405883084 182 140 79 1.6193058347954032 174 2616 175 1965 125 2150
22725 -1.148169352171662 2.2879325883895194 1.3984986360509239 169 136 85 0.41420985393144799 48 3932 174 2781 175 1973 35 4265 49 3856 39 1726
24101 2.364046292359653 1.5763807095205653 1.2951501432432149 13 3 2 0.60658808268170428 40 2164 122 8015 53 4497 54 5818 52 5070 119 5467 51 3034
22727 -2.3131191071606749 1.5158795782651027 1.4522890343666783 197 185 176 0.53878129908206496 56 2371 175 1999 35 3810
24109 1.2763408049230482 1.3311428297317549 1.8533957831722434 208 188 152 1.0641011725653333 54 5853 122 8362 121 5530 119 5297 124 4510 120 2030
22735 1.5044029996638901 1.8634741276186351 1.802655846590774 163 132 88 0.62690123226344052 42 4291 175 2088 49 3904
24118 2.6323870348835361 -0.15416886619777065 0.94761205466793819 108 91 74 1.6073657721935584 40 3124 122 8491 121 6072
22736 1.6019280647011369 0.39997961848529384 2.9870992873466569 35 18 8 0.56331304704505158 41 5597 175 2105 1 4919 39 2011 51 3579
22737 -2.2207942664400449 1.3084670693844822 1.2441156840480259 211 202 195 0.4298123964651982 56 2366 175 2142 36 4358 37 3973
22738 -2.2211110946308761 1.3483120874815577 1.2968070601764856 209 199 190 0.82556708129661083 56 2369 175 2146 35 4061 36 4365 37 3982 38 2067
22739 -0.81806141086897177 1.7916562877368079 1.9934812010036234 11 65 139 1.2759781134762733 32 2390 175 2147 33 980 34 2050 35 4285 36 4404 124 4073 123 3773 158 742 115 3023 126 3528
22740 -1.5630995117121802 1.9538830204609123 1.8539093786913394 188 162 133 0.52612984819113484 174 2896 175 2156 36 4703
24117 2.6217131413999746 -0.36750856603718107 1.0936819196090561 63 52 43 0.54563705175659238 40 2940 122 8490 121 6071
22743 9.329402076519365 12.175017431049923 -7.3384290386931319 127 124 119 1.1026033928773114 174 2936 175 2193 178 2038
22750 -0.74592409511337632 2.0057290634737246 1.2020729678087299 192 161 129 1.653943574505337 48 3981 175 2267 36 4548 176 1483
24125 8.6039827775540907 10.638700320002419 -7.444154313421353 71 66 63 2.1655401884104548 37 4688 122 8778 121 6479 176 1605
22751 1.3746336652287494 0.59139790696999273 2.7772991864639618 64 47 37 1.6545515403048738 174 2754 175 2268 40 3319 1 4970 38 2636 39 2007 50 5116
22752 -1.2496614773130255 2.0958210161069886 0.96521614580306758 221 193 154 2.1311217064247323 48 4018 175 2271 176 1563
22753 -0.5918987474787325 1.9269636326205206 1.6187948111070098 204 180 120 1.1191366947691019 48 3956 175 2277 35 4392 36 4764 49 4052 176 1488
22754 0.14314192822645966 1.2886613914814331 2.4531379868612606 184 141 72 0.41649091216561612 174 2884 175 2292 49 4058
22755 -2.0507747351013896 3.0215120613425848 2.1746296259743909 161 136 105 0.59042671926540891 56 2505 175 2305 37 4290
22756 9.1690789955822876 11.427125407607651 -5.9413255278471251 186 193 204 0.80003843382206574 174 2942 175 2327 34 2431 35 4346 36 4497 178 2172
22758 5.0520900179448329 9.3804821487424022 -3.6311440298838304 134 135 130 1.646142145914433 56 2473 175 2342 174 2857 34 2445 36 4519 40 3367 37 4526 38 2435 1 4805 39 2153 176 1151 178 2303 177 1238
22760 2.6429123442900022 1.2240978306113763 1.4921169354323751 55 45 43 0.60581343732709425 55 3109 175 2348 42 4204
22761 1.3756671923523625 1.3056943613894421 1.8746781080597767 200 177 148 0.88889293086749532 56 2484 175 2356 40 3378 176 1485 179 985
22763 -0.62900495861284678 1.7920246558168673 1.9754252136128096 104 115 101 0.89386268892292686 41 5893 175 2377 36 4772 49 4091
