# 3D point list with one line of data per point:
#   POINT3D_ID, X, Y, Z, R, G, B, ERROR, TRACK[] as (IMAGE_ID, POINT2D_IDX)
# Number of points: 370, mean track length: 5.6199827734711452
13855 1.1573569233793966 6.1667092630260507 -2.6727570050759457 173 165 154 0.050952249643861899 9 1555 12 1412
10638 2.0365757962429991 0.67460044240534212 6.5951582094694992 198 191 181 0.52885975853218592 40 2054 104 2954 39 1824 41 1834 103 3399
11292 2.0977872329268941 0.65833159696840604 6.2725009394977294 108 80 92 0.082998476477523717 102 2569 101 3103 100 2595
10639 2.3716191252492171 0.79520375992176817 6.1425777899399225 170 174 143 0.0036079407120566823 105 2590 104 2959
11366 2.0159821669128339 0.61650351002704207 6.3631454050114913 97 36 36 0.65737729068702677 48 287 47 848 101 3522 58 1311 82 139 49 245 189 205 100 3161 6 285 99 2378 86 1597
10641 1.0604305675109449 -0.44277134193703366 6.9793840608688891 10 57 15 0.66014750456216331 42 1980 104 3032 103 3518
10642 2.223790727313379 0.51684267982066034 6.3841980572281685 0 0 0 0.66771975027345043 93 2081 105 2755
10643 0.993503425027777 -0.084387488381812537 7.0371001812220131 174 159 136 0.67553600867195263 47 249 46 208 32 78 104 2857 106 2333 107 1375
10853 2.0170793440978501 0.84901974106175326 6.3320350614858585 81 57 65 0.25907793668638573 104 2462 103 2810 102 2622
10644 0.83140799985289904 -0.20021699797701631 7.3111804291819897 142 136 122 1.4347199624878779 29 680 26 1194 28 1188 46 1184 45 1282 30 466 30 611 43 1997 42 2177 40 2426 104 2996 45 1094 47 800 103 3529 90 1376 60 682 187 719 91 1069
13338 5.7076253462486317 -0.133373293487172 -3.1936366709767188 6 7 3 2.2615508905412196 69 738 66 1135
10645 1.9563731309362575 0.82116439485424497 6.651939897366594 192 184 172 0.99020743227070362 51 259 53 95 59 765 186 338 46 365 58 494 39 114 189 238 104 2628 105 2297 106 2182 93 1675 103 3184 102 2787 101 3340 100 2837 88 1177 87 631 89 567
11364 1.707272145697019 -0.11604573484918465 6.5546592333618001 58 54 29 1.0180616843603949 45 188 44 182 42 195 105 2362 102 2853 101 3277 106 2016 107 1132 90 978 40 1351 92 1344
10647 3.1579010247708248 -0.87907500823283302 5.8092775297748984 135 133 131 0.34151011761816674 104 1242 103 60
10857 2.1536417300107633 -0.60985762613734973 6.4167520227065031 107 2 5 1.122160425633552 104 96 103 2845 102 2414 101 2973 100 2396
10648 2.4726083240136307 -0.33933558853810286 6.0338677933259577 252 253 248 1.2873299246538903 104 187 103 212 100 1373 102 117
11374 2.634001782111409 -0.36927918041426383 5.9546250732977661 154 155 150 0.72332154766037315 101 1544 100 50
10649 1.7088801217337137 -0.2899045383179959 6.5299470724049211 167 165 156 0.70809240771756243 104 1336 103 259
11883 2.4690921960636354 0.61987226737816747 6.0854310096009865 39 30 14 1.2324482190007031 49 246 48 283 47 350 45 289 43 282 40 257 105 2410 93 1499 101 3527 92 1388 102 2564 101 3321 88 1295
10650 2.8082169134636605 -0.23688010563499398 5.7876989803980452 119 123 125 0.41911768350590273 104 278 103 365 100 1400 97 917
10861 2.3988164536489869 -0.10931071806941246 6.0418551769705227 211 203 200 0.46538191834775205 105 2225 103 2915 101 3046
10652 2.8376754666709041 -0.23420713285895406 5.7699690155720909 239 252 252 0.46944390957109416 104 1365 103 378 96 1108 100 2041 97 1270
10654 1.9341311705256363 -0.18673847112187916 6.3673593122476717 123 116 100 0.28634675045760083 104 378 103 433 102 318 101 398 100 350
11372 -3.3426904967589728 0.43052244405458295 2.081228503704061 225 224 221 1.5646395037545502 15 2404 16 1529 28 2432 27 2638 29 1606 26 2110 14 1687 186 1880 25 1767 54 1469 53 2281 14 1670 13 1446 163 1472
10655 2.0122281506077133 -0.18617500113426705 6.3207449571384622 130 120 106 0.39286082367781411 104 373 103 439 102 330 100 342
10801 2.9925692423329884 0.13063096019121578 5.9601832215507358 216 216 214 0.68228821863063926 104 2006 103 2339 102 1960 101 2423 100 2569 97 1286 99 1740 95 391
10656 2.0045974065302716 -0.1699389707248162 6.3269659249152141 184 170 157 0.32914881846905719 105 318 103 460 102 360 101 438
10960 2.430669327168371 0.77807300431261261 6.0923051843952845 107 8 20 0.40472300143482731 104 942 102 922 100 1025 101 1201
11318 2.8986890914279551 0.037829263610785126 5.725820668012104 219 221 217 0.10530297519059678 102 2743 101 3308
10657 1.9906082822359392 -0.15960158797361676 6.3349216672157338 197 181 166 0.28623185024821662 104 418 103 466 102 384 100 402
11986 3.2411292702107333 1.1150838483737475 5.8065736808309305 0 0 0 0.92613792817572216 80 1095 90 1588 87 1076
13360 5.2737357329283077 0.93668865000341905 0.3795116343993355 50 41 26 0.6672072402901007 76 871 66 2515 75 323
10659 1.9746738009089713 -0.15886861824271462 6.3440696789153943 202 186 170 0.75906878204275496 104 423 105 1111 103 475 102 1397 101 1690 100 1514
10660 1.9966842998360603 -0.15186377771154697 6.3305409504654504 81 66 47 0.27686428920979494 105 340 103 492 101 486 100 412
10964 2.0762086010117144 0.8824414655203574 6.2895289973623907 165 173 210 0.10404969728611584 103 1246 102 1081 100 1123
10661 1.9862007778034201 -0.14432058827876862 6.3372529937915241 191 176 154 0.67923087403925486 106 231 103 506 100 1528
10968 2.1753425664655857 -0.32112479450564058 6.3295221691201178 164 23 41 0.32635970456671987 105 166 102 1281 101 219
11326 2.0076517413302852 0.93768960435958892 6.3707341781576439 62 62 34 0.59167240072120442 59 355 102 2805 101 3364 88 1204 89 433
10665 1.595410838927283 -0.12481462100320304 6.5654267833079087 224 218 218 0.37461794903815926 104 476 103 524 102 412 101 543
10666 2.4269129353691978 -0.11617561136527729 6.0206751534065628 179 112 110 0.2869583306341687 104 447 103 554 100 425
11994 5.0689793497152191 -0.16831016454091882 0.52530940432379536 12 23 24 0.90111232726738277 77 244 76 70 71 340 69 799 68 1093
10667 2.4221207957640813 -0.10174860075189969 6.0175556775661185 254 220 215 0.71141806855137335 104 473 103 576 102 1429 105 1159 101 1727
10813 2.8373419651035303 0.79716853266947407 5.8208252433256584 88 85 73 0.80709528622369042 104 2106 103 2426 102 2069 102 2358 101 2912 94 576 100 2671 99 1853 88 142
11487 2.2324373296286111 -0.57256266189515082 6.3917753472483119 0 0 0 1.7987737451105974 93 2092 102 3138 104 3096 92 1764 98 1498
10668 2.4246042512258947 -0.10223039502212265 6.0196297854495704 254 220 215 0.67699294293513379 104 472 103 577 102 1428 101 1728 105 1160 100 1540
13887 -2.4415392399336957 2.2684329503356153 2.8984128512466496 171 161 92 0.7906361712065969 9 1878 12 1847 8 3051
10670 2.6054748088816573 -0.10140148962624454 5.9045471801531804 220 230 221 0.18676233038796433 104 466 103 588 102 1436 101 1723 100 1529 102 1437
11324 1.7926446760409711 0.92060154780057646 6.6758710306690503 195 191 180 1.4179919631254596 102 2801 101 3360 88 1194 87 641
10671 2.7855286918401307 -0.097842432041228611 5.8025966473997368 158 196 189 0.49313535869770259 104 469 103 598 102 1455 101 1738 100 1527 96 920 94 310 97 1133 95 215
10753 2.5346282741707755 0.64381335604091894 6.0266336383336316 184 190 188 0.52226125347225794 105 1753 103 1828 101 1957
11270 1.9811195530071462 0.78931397718403917 6.6284951149818072 67 64 57 0.257924317784123 102 2604 101 2874 100 2635
10673 2.8421424737577117 -0.09794148485302924 5.7651281237681475 159 188 186 0.27451772379845046 104 457 103 601 102 489 100 1521 97 1130
11779 -2.0506704243549714 3.4430090167486891 -0.38070216452043254 201 209 211 1.8206302661773635 14 1540 15 2270 13 1259 12 1968 11 2538 24 749 26 1937
10674 2.634988939900595 -0.078099059978206362 5.8784363856748483 244 251 247 0.26661078042423048 104 500 103 626 102 1460 100 1556
10757 2.9120422033578341 0.80458030680481429 5.7764867546747771 200 193 187 0.18479140137194369 104 1661 103 1887 102 1692 101 2574
13370 6.0503757747039426 0.55849216070093355 -3.135833586296195 219 205 179 0.55223905335765355 68 4679 66 2777 65 4092 1 3566
10677 2.6153304963325326 -0.066952696320671329 5.9070530706115516 221 227 221 0.3751533686266702 104 1468 103 646 102 1474
10678 2.2466784098502206 -0.058087407080055831 6.1408867175821173 242 238 227 0.15584771818227799 104 1476 103 653 102 1477 100 1612
11268 2.3611468166399923 0.69966319256227649 6.1275551902842746 58 85 68 0.51728103161712524 102 2015 101 2863 100 2625 88 868
10679 2.4196035736870014 -0.05790368942228178 6.0313213951137223 234 217 210 0.14795931377451599 104 537 103 657 102 1480
10761 2.0661596033170588 0.76137409087765495 6.2937978805881203 255 177 178 0.28809506291546227 104 975 103 1910 101 2017 100 971
10680 2.7946537476651754 -0.055822039077371918 5.7965191781134147 163 196 193 0.28049135565099237 104 530 103 660 102 555 101 656 100 514 96 932 97 971
11278 2.3561238923849643 0.8738009151729752 6.13622329890209 120 141 129 0.32398639944540419 94 955 102 2386 101 2931 100 2676 99 1851 88 188
10681 2.8105673742814075 -0.05587459203317318 5.7865491152919279 167 192 192 0.40744670518788145 104 531 103 662 102 556 100 1581 97 970
10765 2.017185591587638 0.76607211269109354 6.3296211276286876 122 116 115 0.31700767008408848 104 989 105 718 103 1919 102 1675
10684 2.6088987538097657 -0.044409393508588663 5.9036321460271903 133 139 135 0.16821745082599737 104 553 103 676 102 565
11276 2.8336537058613271 0.79572018974940473 5.8189631084859919 88 80 61 0.23374799374771724 102 2359 101 2913 99 1854
10687 2.8927691406034 -0.013962899018570918 5.7468141821156502 116 129 123 0.64274194554888309 104 584 103 748 102 621
10688 2.9022954979375024 0.038352237891440134 5.6953550739615633 248 252 254 0.67961428216128583 104 645 103 778 102 1532
12070 5.9275931795499943 0.37231025189487044 -0.041716281527312098 17 16 11 0.78303958718811151 33 688 76 717 72 2499
10833 2.6215108701765724 -0.12044228530944767 5.8923604330272976 234 239 235 0.57046605662602001 104 2313 103 2656 101 3038 100 2491 96 1282
11859 0.95938557171845662 0.76362467019832481 7.3101947097793047 140 142 139 0.65776284065990842 94 1182 92 1397 88 1306
10690 1.7268159991743162 0.086431854657276375 6.784343686102229 132 136 132 0.30122714099908965 106 359 103 810 102 688
10691 2.8237670961711583 0.10456457314002875 6.069602781144388 164 166 161 0.53506509975040883 104 674 103 815 102 1550 101 1880 100 729 97 995
14113 -0.021297807154275795 6.1474650262388817 -1.0308598075635442 145 133 109 0.25547633164835853 9 1741 10 2153 11 1896
13392 5.8828051206046492 -0.40782276681882157 -3.5788568610101437 205 197 178 0.93685408063339703 68 5120 66 3092 65 4540 1 4145
10837 1.540978399018214 -0.056605995200448768 6.6441084660908123 118 104 88 0.078990632538874353 104 2344 103 2675
10692 2.3357162236380078 0.63569970657138497 6.1535275990972416 140 140 138 0.37226476330214192 105 653 103 943 102 773 101 940
10695 2.8420783106094722 0.67884804008398314 5.8100927101947484 63 81 82 0.8848140163834185 104 1598 103 953 100 937 99 520
12069 5.2743506590278164 -0.35819658399130572 2.1088234719312173 134 92 60 1.0208218918424183 47 171 76 687
10696 2.3170988440213538 0.68159708466294711 6.1564013065641685 186 203 195 0.35716976727960481 104 839 103 996 102 809 101 1017 100 876
12078 5.3478012080517718 0.59529708614680532 0.32555216674108889 131 133 119 0.39743734488030968 35 659 76 848 72 2229 71 3310 66 2453 1 3196
10841 3.0050151109953092 0.14476730659538731 5.9549977841251129 164 165 160 0.15849180857135139 104 2370 103 2718 102 2549
11358 2.4918728788579076 0.89440953047777794 6.0363839562436992 14 50 32 0.45246843940287612 103 1989 104 1759 102 2120 101 2629 105 1874 94 579 88 214
10697 2.831297695565191 0.77383476935002804 5.806053715394242 161 162 154 1.0004507358640717 104 1641 103 1040 100 2335 101 2061
13919 3.4417039461780403 6.327296033045255 -1.2995756268006831 160 145 116 0.9169294431944931 9 2085 12 2014 10 2737 11 2484 22 1152 36 2226 37 1362
10702 2.4573204675867246 0.76980405276224184 6.0672256250317567 193 104 116 0.18550177134668056 104 931 103 1059 101 2037
13100 5.5249458197879342 1.0674044839063228 -3.9872191104128984 67 65 52 0.27786573910745005 70 2906 69 2930 68 2902
10703 2.4639899734058606 0.77598595298716444 6.0625492241644725 118 17 35 0.17236904060409833 104 938 103 1066 102 1683 100 1883
12077 5.1111595591865679 0.46425778577599108 0.48111637637070398 224 220 219 1.8702800610578674 77 1185 76 844 71 3676
11356 1.6176060217082504 -0.35243477760709846 6.6330017003909409 0 0 0 0.76588809218823917 93 2096 107 1937 92 1798
10913 2.2352219633510897 -0.60922029409108847 6.3738879876456354 102 1 1 0.036072560841065811 104 97 101 1508
10704 2.8925939387246316 0.8161400788748836 5.7910986700846792 147 141 125 0.39622517978048499 104 962 103 1089 101 1317
10706 2.8032991265872305 0.82587913187153705 5.8562022498453423 63 54 36 0.27377034451309795 104 980 103 1105 102 1709 101 2099
13104 5.0154919914569751 0.8419351849727329 0.53834999105652515 38 26 14 0.19737406126742396 76 777 69 2970 68 2731
11939 1.1279824025720779 1.7082133885854174 6.8954863508914244 200 196 108 2.3185059262363921 90 1580 91 1343 44 2108 130 2981 41 2971
10707 2.5196950153127649 0.81773054112373444 6.0272396923861002 190 179 174 0.1420870403551619 104 1003 103 1122 100 1097
10917 1.5623013072174139 -0.19578173817113803 6.5790189244829476 145 148 150 0.35035491744939368 103 394 102 280 101 364
10708 2.5194075770299325 0.81775629816234752 6.0272739518028349 190 179 174 0.17682363205416082 104 1004 103 1123 101 1289 100 1098
10709 2.3742818818252633 0.80876426613685837 6.1280740436794749 189 208 189 0.16820490708791863 104 1007 103 1124 102 969 100 1059
13099 5.5444286160711806 1.065149558444026 -3.955978527097709 71 73 59 0.33075579419223267 70 3419 69 2929 68 2901
10711 2.2500661377457223 0.80463202194796424 6.1989554700380856 198 212 193 0.20580955036653409 104 1013 103 1132 102 964 100 1038
12085 6.8157851221611052 1.7461019859911409 -0.56134229641485189 128 125 120 1.0233546028896361 32 929 76 965 70 3764
11428 2.2917592353710177 -0.32248572753026244 6.1697801131318695 253 255 252 0.86331632289981197 102 2433 100 2427
10712 2.6432922953698363 0.83466797186148101 5.9512322464616059 193 168 149 0.27016102200172465 104 1701 103 1133 102 1714 101 2102
12094 5.3640671631795938 -0.23813357395312229 0.35924572152683482 221 220 216 0.48213562588856623 77 1457 76 1121 68 6032
10921 1.5476823987829909 -0.16321343841575248 6.6053271364072828 168 161 160 0.38152345440316798 104 427 102 347 101 458
10713 2.0250825761402216 0.78998320146084688 6.3218862713704622 157 148 146 0.30683351829280442 104 1024 103 1141 102 943 105 736 101 2048 100 995
13119 5.5664893289252388 1.3122486485188936 0.20227451031758062 99 93 73 0.44130260182231273 76 791 69 3227 68 3014
11438 2.3204842441687803 0.69717801993286599 6.1533572019387588 28 52 30 0.23043999042813049 102 2012 100 2619
10719 1.0943517510263105 -0.37514872382697872 6.9413235115410732 139 120 99 0.84989947599306281 104 1289 103 1413 102 1218 101 127
12093 5.9976920080220113 -1.0683209675070044 4.1383770247412004 197 189 170 0.18171036705878627 32 961 76 1084 31 1029
11436 2.3593085779786995 -0.046376840526538496 6.1067850202335023 64 5 2 2.3685395350593592 105 2002 100 2530 90 151
10865 2.1719642943533479 0.75786018503194397 6.2406155265728191 157 46 35 0.47515403142743989 58 512 103 3001 102 2779 101 3338 99 2036 88 1172
10720 1.0789304824546937 -0.27050411464498431 6.9046476725862611 190 194 196 0.47795389169900809 104 1361 103 1481 101 1602
11382 2.8502264106912634 -0.039931996232194011 5.7614735872166563 32 76 63 0.47743563909489883 104 542 100 542 96 934
10721 1.0549553880006219 -0.25972196835653533 6.9252419630107775 147 162 157 0.64076919701175616 104 1376 103 1492 102 1274
11891 2.2425292229003051 0.88087036216174464 6.1518984681941733 60 76 50 1.0157946060022001 90 599 91 557
10722 1.0021435654429187 -0.21260095423643779 7.0380491828707905 8 4 1 0.55054425510125982 104 1404 103 1567
10723 2.7962612530832081 -0.23247918082605148 5.7916463710029795 241 252 253 0.75199244376152441 104 1367 103 1569 100 2044 99 1286 98 792 96 1109
10869 1.5485071831737225 -0.21099881579036525 6.6142763121779762 1 3 1 1.7751374495871248 105 2197 103 3086 102 2692
10724 1.9552908509410674 -0.19271854239753722 6.3546843496559582 23 13 5 0.24371565553095142 104 360 103 1595 102 1357 101 1659
11380 2.8206403048200857 -0.098150885747255875 5.7788977766103979 154 175 168 0.41987826773311415 102 487 100 427 97 957
10727 1.0881862844354413 -0.1009843794390036 6.9310767733390755 194 171 165 0.3380618812508841 104 534 103 1651
10873 2.2049179283579705 -0.10280741398310816 6.3137917677678415 58 24 18 0.41375685767117254 104 2710 103 3118 102 2722
10728 1.9973809836037217 -0.10985368652637888 6.3320927134364435 127 112 92 0.4389601145410949 105 374 103 1654 100 1567
11390 2.8183135388255667 0.65435573044767459 5.8391786634521523 147 115 75 1.0981814218286221 102 786 100 884
10729 1.9160066698051983 -0.079294080660540084 6.3847928231805309 112 97 73 0.17295574394032687 104 1472 101 2355
10730 2.5989840564080886 -0.10366194842956084 5.9200245565359406 217 227 218 0.06018681329859097 104 1434 103 1659 102 1886
10877 2.0381353800195701 0.7230713812057038 6.3113107785690818 98 2 4 1.1330269543993567 104 2625 105 2096 103 3172 102 2772 101 3334 92 457 88 874
10732 1.9616670583730755 -0.088541060606590227 6.3523527390615611 194 182 158 0.33277841687351711 105 1174 103 1666 101 2346 100 2136
13951 0.54408055905705954 3.190604821099325 3.6181830257503425 209 215 223 1.4733688644189542 16 916 52 1323 53 1741 12 1490 18 1436 51 2018 81 1444 52 1586 53 2001 80 957 26 1584
10734 1.9470066907430474 -0.078395830701946473 6.365140690706804 145 133 107 0.38493901282316473 105 409 103 1673 102 1458 101 1770
10735 1.5512333914538223 -0.071918130730738813 6.6078579107698907 58 32 17 0.49247958448140983 104 1480 103 1678 102 1456
10817 2.0742127070656053 0.75562816763453045 6.2890824300299562 178 13 27 0.2175289127405915 104 1679 103 2438 100 2272
10736 2.2287136294883596 -0.070943479949509378 6.1499755668951481 124 70 3 0.54501162022050043 104 526 105 1629 106 2033 103 1679 102 1462 101 2349 100 529 100 2131
11334 1.8110964275725758 -0.48042047867385856 6.5005036553471998 57 67 59 0.28381332413650207 102 2945 101 3489
10737 2.2287136294883596 -0.070943479949509378 6.1499755668951481 124 70 3 0.54501162022050043 104 527 105 1630 106 2034 103 1680 102 1463 101 2350 100 528 100 2132
11843 1.9736339827854064 -1.9360245970502228 6.569841436135655 214 216 211 0.51723563260075733 93 869 92 564
10738 2.6134149494030834 -0.064727911477315603 5.8933574444134162 240 245 239 0.47625279280040322 104 1469 103 1684 102 1471 101 2351 100 2128 99 884
10821 2.6299854385641073 0.83597853704894831 5.9683880313986597 164 143 122 0.30396451723209827 104 2131 103 2455 102 2091 101 2591 100 1923
10740 2.5994150927892101 -0.067407872270279848 5.9258284713642944 200 206 202 0.12295275255205744 104 1466 103 1686 102 1475 101 2359
13434 6.2239118480854883 0.56810719507218488 -3.0236914721295816 217 202 181 0.68999179598109495 68 5858 66 3597 65 5357 1 5058 67 2986
10741 2.6032208002728061 -0.066437150940504494 5.9114259673653313 220 227 222 0.15439188055660683 104 1467 103 1687 102 1473
10743 1.0199914738627012 -0.061724075665082492 7.0626311591595474 150 127 96 0.41675785588666359 104 598 103 1702
10825 2.1599424006605252 -0.5960497807601709 6.4400820498294662 227 205 197 0.76044815370917362 104 1844 103 2530 102 2656
10744 2.4517259899783821 -0.048094286624465431 6.0000954428201201 188 160 162 0.53421545012724236 104 1479 103 1705 102 1486 105 1216 101 1792 100 1607
11342 2.4739789522916853 -0.34946283951366791 6.0292244645321391 244 245 239 0.94899682014416431 102 3047 101 3637
11851 2.0310917822496872 0.88950835471737344 6.6085630349447362 159 159 150 0.36185646493362117 101 3166 92 902 88 921
10829 2.4807434157714465 -0.25955026571331313 6.0327660367885585 119 86 48 2.0035221122376803 105 2184 103 2589
10748 1.0274873581635733 0.084167905318337552 7.2447872576421712 178 179 183 0.21208024632522818 104 1549 103 1775 101 1875
10751 1.8796829405889135 0.14420961347303862 6.6898906614285254 175 180 176 0.10140233715515085 104 686 103 1781
11698 -3.9161185743282494 2.4023910382082487 1.3083045182311364 149 143 86 0.19554879891226892 14 1054 15 1986 13 687
10755 2.0691220438473485 0.73233587094849761 6.2911815462126919 227 179 179 0.37967903338557873 104 922 103 1880 102 860 100 1817
12215 5.5817641796055533 6.3564274334844528 0.051534148738267498 162 146 123 0.79367385168484428 190 1286 21 1915 36 1898 37 1094 22 876
10756 2.111121209054859 0.73616645843057094 6.2660553201438018 233 178 181 0.13362064868991252 104 1654 103 1881 100 1819
10758 2.681809429396901 0.79606874341856682 5.9173086312843939 220 203 193 0.29129671008893993 104 1670 103 1899 101 2565 102 2067
10762 2.0660863780381824 0.76117464390098211 6.2936856266713752 255 177 178 0.28162314796433063 104 974 103 1911 102 1674 101 2018 100 970
11706 -3.5749750426126745 2.3111218245337355 1.719499351497199 198 191 119 1.485829298054151 14 1233 15 1979 13 822 12 1201 9 1642
10763 2.6263349379356313 0.80951043602678496 5.9839727805000473 157 137 112 0.25531880049053635 104 1684 103 1912 102 1699
12217 6.4276708027011091 2.247499045479187 -0.28117590812310878 103 95 92 0.5032210574064353 20 1540 21 1990 22 1095
10766 2.4802487026243809 0.80879377315907242 6.0491615862364716 99 10 28 0.72751532827392884 104 1693 105 826 103 1925 102 1705 100 2332
14211 2.6835963115152914 7.7284764680845006 5.2934109694895239 82 70 56 0.050102079458180931 8 658 36 1048
10768 2.6609371404692612 0.83809528901414088 5.923919455575378 65 49 37 0.17406522714081071 104 1023 103 1936 102 1004 100 1149
10769 2.6649548988235621 0.83936333855317669 5.9267779497956914 65 49 37 0.58945585783633292 104 1022 103 1937 102 1003 100 1148 99 1569
11650 2.6098331786677638 0.74540177167922073 5.8989462073139682 17 30 21 1.5474465370286881 15 287 94 1654 99 2390 98 1289
10771 2.6352974005041503 0.8485518219751349 5.9585966589482675 182 164 142 0.089289756631229414 104 1710 103 1942 102 1722
12167 6.3277490512260846 2.7529415214319952 -2.7075850524027514 201 193 170 0.80002410252886091 190 1422 72 3732 71 5565 70 6297 66 3312 71 5122 65 5453 67 3125 74 1300 64 1497 73 2502
10772 2.6369043503906515 0.84850108223116227 5.9591976547925176 182 164 142 0.22648953649821379 104 1711 103 1943 101 2597
12161 5.6363029142293604 1.5482220879518664 0.080254565683568091 142 130 123 1.7038477524113189 35 1515 72 3402 74 1079
10774 1.6576132257193044 0.79495504590444988 6.583777441698885 132 126 112 0.21244546882681897 104 1727 103 1969 101 2543 100 1832
14229 1.2008799490467297 6.38735577102275 0.83530454430826595 212 205 197 0.24069334170814582 38 2457 36 1981 37 950
10778 2.0601656448318115 0.88091338507800521 6.3032271835511393 150 157 176 0.45006809280221771 104 1773 103 2008 102 2114 105 1448 101 2610
11658 1.839275661184093 0.67400992377170432 6.7457456987029882 209 207 195 1.7052629364478205 100 3299 99 2469
10779 2.3772756089051987 0.9155765362001953 6.147791166608541 36 50 25 0.48796115312827709 104 1137 103 2010 101 2634
12175 6.7434234389718197 5.8429561849919471 -0.42945745464586826 151 142 127 1.0559166170977952 34 1307 35 1860 36 2449 74 1477 73 2604
10780 1.4689750837249744 0.83616688284969243 6.6816146827852858 109 110 114 0.45575578743354539 104 1143 103 2015 102 1724 101 2071 100 1861 99 510
12169 6.6475726500049435 5.7345527367940576 -0.76197194387897738 94 78 51 1.3624148012476494 34 1102 35 1546 72 3756 36 2067 74 1313
10782 1.4179509640784822 0.83588999928849705 6.6917221922445105 36 34 37 0.48869592784415261 104 1157 103 2029 102 1726 101 2075
13710 5.2308091489997768 1.6339454961052868 -3.1134029362393632 152 144 130 1.8996981396150285 1 5283 67 3306 65 5579
10783 1.4179509640784822 0.83588999928849705 6.6917221922445105 36 34 37 0.48869592784415261 104 1158 103 2030 102 1727 101 2076
10784 2.3136119747329738 -0.59474263992093479 6.3433162149428126 92 15 26 1.3841924072899043 104 1255 106 2257 103 2097 102 2156 101 2659 100 2701
12113 5.228132491606897 -0.15270166601443849 0.4500281860619883 203 186 113 1.5700974385428026 78 628 72 20
10790 1.9743313214696299 -0.10766955900641959 6.344271286624763 188 173 150 0.43114300183231408 93 407 103 2262 101 2763 100 2124 100 2511
11456 1.7366282629631828 0.81228952311339164 6.6037484467779812 198 189 160 0.36078189990704856 84 417 93 1196 100 2833 99 2033 87 73
10796 2.0055600489598513 -0.06966979338630154 6.3272254163808714 89 73 57 0.34643028104843199 104 1981 103 2289 102 2248 100 2146
12494 5.6893387179049162 1.3808722438938308 0.12097082876098957 113 119 146 0.52104636876385901 18 906 76 795 71 3402 36 12
12127 5.7929614877047824 1.8054560972259281 -2.3641159321537701 52 36 8 1.0114850410376426 190 401 72 825 66 1614
12121 6.3241148376528038 0.92236884383486795 -2.7006327923714268 207 199 180 1.6691736500442389 190 305 72 535 70 1316
10798 1.9199707774992052 0.091796571792255463 6.6628773761355076 204 206 201 0.22440970277622713 104 2007 103 2331 102 1956 101 2418 100 2191
11464 2.6237777753905713 0.67020991590074341 5.9895888952974463 80 68 45 0.52271379163368958 58 507 100 2968 88 1163
10799 1.9197811883090217 0.091486310060360315 6.6625844102481429 204 206 201 0.16670245914708243 104 2008 103 2332 101 2419 100 2192
14243 0.70799239232621836 6.2444068327803368 3.0528518666863351 149 137 121 0.73007349101833663 39 3626 36 2210 37 1241 23 275
10800 3.0087987939809078 0.10424095967936844 5.9538877121779121 209 209 207 0.25072536944347462 104 1543 103 2333 100 2565
12498 5.8502757888652503 2.0052496873334751 -3.447226297078227 182 162 135 0.57357857699048953 72 2391 71 3486 70 3786 68 3005 66 2148 65 3472 1 3675 66 2562 67 2097
12199 3.4595943185936417 2.7100903005954677 2.4269923279599768 140 113 74 1.2960031423021843 20 950 21 1340 190 1099
10804 2.8129059643116223 0.66518155999749817 5.8432939313502414 157 120 76 0.4387939327152246 104 2047 103 2385 101 2850
12193 3.632040707575559 3.2743697265571492 2.2905303092627216 220 219 215 1.1161776774807164 8 559 21 480 22 66
10806 2.0070116139050351 0.70411169822987718 6.6691972894935994 202 199 190 1.0718093811328335 104 814 103 2402 92 848
11472 3.5218949892541249 -0.35657322230961619 5.6323550824418023 165 165 165 0.92030406493100836 41 93 100 3023 90 956
14261 -0.3821074741035152 6.4059858017123714 1.8349793492439115 177 168 161 0.52363657442402356 38 2886 36 2455 37 1555
10810 2.4956705409108246 0.76884562313317129 6.0409969327648749 183 101 115 0.1847822639139392 104 1652 103 2421 102 2048 101 2546 100 2307
11690 -2.8189054411165055 3.5650051933601805 -3.0315569239947817 81 98 102 0.84744576304282115 14 669 13 581
10811 2.6646755218369087 0.78081802217691298 5.9268293271939587 211 198 184 0.20898178353615998 104 2104 103 2422 102 2350 101 2901 100 2661
12207 4.3244121851857935 1.7522602585093947 0.80959553274846918 178 182 183 0.35987181584606759 20 1228 21 1690 22 801
10812 2.4350717369897512 0.7701150297281476 6.0809960810393617 178 87 102 0.15799352894384674 104 1659 103 2425 102 2050
12201 7.2809884131752707 6.2566931746385945 -0.59156396283385837 103 91 126 1.1401333680337924 8 3170 21 1427 9 1795 22 723
10814 2.4746655335773728 0.78112626788257777 6.057238673424064 134 22 47 0.2125543720890451 104 2110 103 2430 102 2061 104 1667 100 2318
11480 2.3982238792979103 0.74588849236641064 6.1167589058656153 0 0 0 0.72289096711014222 102 2986 103 3307
13742 5.2194444880134574 0.97662384527057833 -4.2294703782801903 13 6 3 1.1071402586619357 65 4184 66 2463 67 2013 1 3600
10815 2.4402567303288545 0.78266709016828007 6.0807320787778822 118 13 34 0.39408689059185337 105 1828 103 2434 102 2062 101 2552 100 2313
12505 5.255607932982902 2.5705108438207551 -4.3047451475383189 186 162 134 0.72283676356698201 72 2421 71 3528 70 3575
10816 2.0742159516872576 0.75524100284607021 6.2887504143663824 178 13 27 0.25732735136840978 104 1680 103 2437 100 2271 102 2328
11762 1.4781742933317545 5.986415627269138 3.4390798807090324 114 105 89 1.020265440080296 14 1480 13 1156 12 1880
10819 2.0661412156842562 0.76838628120935659 6.2938022680766803 234 171 168 0.52107652100957724 104 2123 103 2446 100 2278
12279 -2.5374828891448864 2.4624748118348441 5.0156389497259468 13 9 2 0.40475641193425571 7 1379 8 2265 9 1034
10820 2.5075963143262396 0.80672764984581136 6.028569103679323 131 29 47 0.58778557119806618 105 1840 103 2448 102 2079 101 2911 99 1548
12273 1.8087896564099386 5.9077888621278261 0.98469495758609304 177 162 141 0.63000919403950517 6 2203 8 1755 9 813 10 1097
10822 2.1276075336041211 0.8689895315019377 6.2626117128253842 50 43 78 0.59885215270769798 104 2166 103 2476 102 2097 105 1451 100 2343
10823 1.4278280827159302 0.84496000274551619 6.6883924509271848 231 229 235 0.99409066005794089 104 2179 103 2486 102 1734 101 2570
11770 -0.40467347817077842 6.2451004925029974 0.35828711045503908 163 152 134 0.80137761754099535 8 3315 13 1175 12 1739 24 778 23 456
10827 2.2470581700276591 -0.474115028137789 6.3367004613398512 199 41 56 0.27822219554106031 104 2215 103 2536 102 2423 101 2978
12287 1.8455935675408177 3.1780944047844013 3.3386761671422374 166 167 159 0.61114389288213 7 1001 14 657 9 1080 15 1348
10828 1.4388854003703302 -0.24319745552630428 6.6738007854582939 135 133 121 1.3312449099081656 104 2523 103 2584
12281 -0.18021704282978351 2.2753203874152477 4.4148809876610908 125 115 76 1.3078723473073259 7 2094 8 2746 9 1037 12 934
10830 2.4194761560144609 -0.16675617921994679 6.0228609195490588 218 218 218 0.26891611483693223 104 2288 103 2628 102 2479 101 3025
11555 5.3341424390380139 0.94581080083755897 0.3418632928204321 210 206 202 1.4274016712818873 17 1598 32 918 20 1330 17 1592 8 3237 6 2756 189 1317 19 2013 190 1197 35 1502 72 3359 21 1798
11714 -2.4193478223586067 2.3211359763548249 -1.322215907456429 53 47 10 1.0178308106416212 14 1259 13 841 15 1879
10835 2.6223900321394571 -0.10461491981737192 5.8888296882063171 235 241 237 0.41473829177808774 104 2320 103 2660 102 2242 101 2760 100 2498
11563 1.7415297848908293 -0.061984697974064286 6.5144289313161732 97 101 3 0.3538686830817111 45 200 90 860
14293 1.2671233411911478 6.3805056251123293 0.7395155279784914 171 159 145 0.20477190087078007 38 2459 37 954
10842 2.8612157311618893 0.64344445562385455 5.8003447269943287 149 160 109 0.25644696350666635 104 2394 103 2732 102 2300 101 3107 100 2820 99 1790
12233 3.3112232063618618 6.3024118353888259 2.3145026297799065 163 146 126 1.3504795464241988 190 1663 21 2280 35 1876 24 907 23 582
10846 2.8566017104024781 0.78086506120754651 5.8050496207786315 140 139 131 0.88326229817302571 104 2429 103 2776 101 3164 102 2060 100 2858
12076 5.7289116119550467 0.19278001455923974 0.084825251377166552 5 4 21 0.11796123340589471 77 1067 76 826 68 3078
13774 5.6754591011989879 1.5482268771965566 0.10167421122555897 169 148 129 0.30097544710515867 65 3474 67 2509 64 1009 63 397
10847 2.8345053924055335 0.77886516721779453 5.8163248879584231 156 156 147 0.77633900149155077 104 2426 103 2777 102 2607 99 2058 98 1122
10848 2.6112572648895869 0.78787995831225799 5.9968037370255791 129 123 108 0.80724372003519196 104 2626 103 2781 102 2352
10849 2.1226661356221528 0.78629496572961721 6.2551131080960447 154 36 26 0.43441512826272871 104 2130 103 2793 101 2895
10851 2.0968429915603592 0.84958053510696729 6.2778565321813931 85 54 70 0.3889571672498478 104 2456 103 2807 102 2623 101 3168 100 2667 105 2127
12183 5.3489625164200429 0.26505729273734863 0.34423020770553459 34 29 25 0.5215509097933293 19 1767 20 1167 72 2798 8 2642 6 2312 31 791 32 735 33 954 189 956 34 589 78 1036 190 820 35 939 77 1172 76 918 21 1626 71 4246 69 3135 69 4402 66 2758 1 3132 75 361
10852 2.4100417290101848 0.88321921707814044 6.1022943395479068 72 96 86 0.50821724004927393 104 2459 103 2808 102 2105
12177 5.1256308888182183 0.96494397327980219 0.46871861472758841 78 77 78 0.41892098665124011 8 2199 32 635 33 776 189 1029 19 1351 78 1100 72 2544 34 471 190 870 35 686
10854 2.2473934658767614 0.87824479503087338 6.2063063314636873 102 120 107 0.15887200278882799 104 2162 103 2811 102 2387 101 2929
11674 -2.542356014519521 2.275795263056446 2.29705777909968 114 107 62 0.97166314739176018 8 456 13 121 9 715
10859 1.5456048963528504 -0.17852708485974667 6.6162609932312062 9 11 6 0.48212209171133991 104 2547 105 1957 103 2889 102 2470
12191 4.8560564172586194 0.67058617018281486 0.62958076117120632 184 181 176 0.63878483415922249 190 229 21 132 75 220
10860 1.921080026090163 -0.13866849354153177 6.3780141250330766 185 173 149 0.33941296332182452 104 2556 103 2910 102 2495 101 3037 100 2771
12185 5.6575978029540144 0.64870810583705174 0.14351546093986553 228 206 207 1.1122715999154333 33 335 189 1003 34 445 190 851 77 1099 77 1267 76 745 72 2917 18 1068 189 1175 17 989 188 500 71 4367 70 2840 75 215 75 304
10862 0.90685357934798783 -0.076266746522185125 7.0565374444040554 183 163 148 0.89679202831810301 104 2341 103 2922 92 345
10863 2.4467827562338678 -0.064652758687520809 6.0097223774974635 217 219 218 0.17678350236408236 104 2569 103 2926 102 2725
14307 -1.0156847848192314 3.917119881335374 1.184742702415096 105 113 116 0.48116387369067659 25 1579 36 2408 38 2760 37 1428
10864 2.3513882467189164 0.66595437092492116 6.1367587493765505 28 75 65 0.38591725925042863 104 2609 103 2980 102 2760 101 3326 86 42
11746 -0.60940226263142994 1.6107739129219985 3.6867882558121696 89 9 2 0.72576441907864542 14 1444 13 1091 15 2232
10867 1.9818799296786884 0.92506306992892884 6.634583233902954 55 58 49 0.29343624494343618 104 2461 103 3032 90 596
12263 -1.0459612432339624 2.4933534105070367 3.1636224903071777 209 204 192 1.681348342966543 14 853 9 727 12 958
10868 0.90923695785449388 1.0757151951591855 7.3290138842361285 196 197 192 0.19927591768337394 60 215 103 3049
12257 -0.18957833746655858 1.9707318441588526 3.7584331885678317 65 50 31 0.83409046559446098 8 1466 14 588 9 678 15 526
10870 0.91170117026394426 -0.13829582116505046 7.0396194601497015 194 179 88 0.47921534737338234 104 2563 103 3102 92 313 105 366
14325 1.6066077456123462 1.0252796194743288 6.9062280444846333 196 197 196 0.015276511280044487 102 2643 88 224
10874 1.5646197811566898 -0.05651063450128508 6.5974074446769482 175 160 151 0.49390827007177274 104 2729 103 3121 102 2724 101 3292
11754 -2.1775463618732958 2.4359284109414898 -0.20539103604805647 230 220 135 0.89979612997895808 14 1468 15 2201 13 1138 12 1713 10 2562 9 1890
10875 2.8452304115336284 -0.046112246222003252 5.7736722702568164 152 176 177 0.57518949036648526 104 2718 103 3127 102 2730
12271 0.93285657947342981 6.0255287564610231 1.6243939503285352 196 184 160 0.94079892138443355 6 1804 9 807 11 127
10876 2.4888550050211151 -0.036706820824119919 5.9965851115968549 236 235 235 0.064355105941877377 104 2723 103 3131
12265 -1.9261199310496577 2.5264353371637869 1.7923663913802312 215 207 188 0.76906472317927743 17 1088 52 1338 9 740
13806 5.8073558413887039 1.5029007218545187 0.041627477038733575 120 104 45 0.26912285091486954 65 4676 67 3217 64 1309 63 603
10879 2.6339624304085709 0.81381745407526795 5.961287246321687 86 56 32 0.45408370317431374 104 2768 103 3180 102 2789 101 3352 92 1217 88 915
12054 5.2186492807786866 0.55874852589644342 0.41669973950362144 9 4 3 0.44467435144277018 77 973 76 589 72 310 69 2503 68 2555 1 2187
10881 1.3939864090208363 0.58908080141646257 5.9818818452012348 0 0 0 1.5756681797080949 104 2781 107 1571
11539 5.9613938581415553 0.74985696668922386 -0.040002861497081099 224 220 217 0.80318028844230138 32 1135 20 1609 72 3644 21 2066 73 2348
10882 2.9134055260095528 0.97145157436512863 5.7153591819491112 80 80 68 0.25269994861253364 104 2788 103 3205
14096 2.6208930692315646 6.1443011776566054 -2.8114705256011203 193 184 169 0.36176352371690762 10 1410 11 1313 9 984
10883 1.0246031785661129 -0.17618952476472333 7.0333380758976309 46 34 20 1.3702752298563039 104 2706 103 3256 90 851
12052 5.1253133032298726 0.40104144650464085 0.48716266326993812 232 223 220 0.21877446991766164 77 775 76 566 69 2450 68 2517
10887 2.7186085056139286 0.83365535132773871 5.8859131642794127 35 30 8 0.12790754343557503 104 2889 103 3315
12062 4.7297376821617654 0.61872393890277377 0.70492189144575057 22 14 12 0.72076934356032252 35 98 76 618 72 2899
10889 2.1820760476554959 -0.0583136239279195 6.2448166199961781 138 133 127 1.3554362017802617 104 2853 103 3382 90 864
11547 3.5474790144488186 2.6882442541879561 2.3976002491552069 172 155 137 1.1913154276210538 17 1899 18 1723 19 2402 20 1824 21 2299 9 2320 22 1323
10890 1.7522746737276353 -0.049731080095725744 6.5068445366638956 90 85 0 0.14987179973799922 41 1178 42 1257 103 3384
13599 5.8904009934726504 1.4764313667589322 -0.065657465449309296 185 187 186 1.1985451300533094 66 3910 65 5578 1 5286 67 3337 75 665 76 1176
10894 1.3688860289524287 0.89429164022685903 6.7285288687779365 97 76 72 0.11333400719826692 104 2975 103 3417
12134 5.7179820386111233 1.5850736464109982 -2.4022960675436522 63 47 21 1.3133759863717067 72 1801 70 3057 71 2882 69 3022 68 2721 1 2325 66 2122 189 834
10897 2.394890374667423 -0.13107146762439986 6.0612400795796315 0 0 0 0.0056244561812048835 104 2998 105 2664
11619 2.7822330209615784 -0.21319277079903859 5.7875210297826873 30 61 48 0.53039391465809949 100 2736 99 1932 98 1073
10898 2.9288153680667546 0.90913828767992277 5.7513691938088138 229 229 221 0.44761124902857247 104 3026 103 3467 101 3629
10899 2.2766824287349339 -0.58003339852358071 6.3706737748803421 214 33 42 0.9051810047453509 104 3031 103 3479 102 3090 101 3631 90 1368 91 1129
14106 0.97479955628706139 6.0698150166276639 -3.2918299753047799 187 176 154 0.21983500629293254 10 1922 11 1703 9 1257
10901 0.83955723684847394 -0.21832696817538155 7.0654525103833432 77 78 72 1.2645351437658729 104 3062 103 3528
12132 5.7124553884403655 1.0009902287678267 0.10348482090854495 145 136 122 0.78159722323759728 33 399 72 1645 69 1456 76 344
10903 2.3561136631821382 0.77932586489924627 6.1930855821671962 120 127 91 1.9942324802135454 104 3087 103 3558 90 1486
11627 2.7829435021755051 -0.18005029920338975 5.7931548495794303 1 23 6 0.46809515259401602 100 2908 99 2117 98 1164
10906 2.8476188711586397 -0.3239813182407506 5.8639958179947005 104 84 65 0.50588860046272177 103 3600 91 1326 90 1563
10910 2.34933563662607 -0.6463635318198685 5.8856435404508822 234 233 231 0.26917002540607698 104 3146 103 3626
12140 6.1691397781344737 1.1925291906599567 -2.1338207124956443 110 98 72 2.149576312730626 35 1327 72 2299
10911 1.493206409830615 0.71728993747192671 6.665125325365354 74 71 59 0.50722869385144809 41 296 42 291 40 272 103 3403 43 1116 39 2641
11730 1.3861577914039263 6.2559041553183583 2.978554762521108 144 132 108 0.37695618049570701 7 2346 13 998 12 1517 10 2417 11 2322
14128 0.62805074487878865 6.1425180910055319 -2.9878115282827382 149 139 122 0.090087782996672264 9 1834 10 2283 11 1987
10915 2.2052645891461449 -0.3474693012870671 6.1698715733895062 144 144 136 0.93764091665726346 103 165 102 81
11579 2.2685431263674598 -0.32675489014936887 6.1291756246955487 187 194 202 0.44344458801590853 43 1546 90 1277
10922 2.0194407544968351 -0.16992094650787043 6.3185126796130131 191 177 164 0.28093109836878566 103 458 105 319 102 365 101 444
12249 -1.034135386863388 3.4648301736932563 1.3945173128475132 186 186 184 0.46951904212669682 7 522 9 154
13631 5.5661576796498204 0.20791854956310554 -3.9572397306778853 216 208 187 0.33620495446372606 66 1976 72 1428 1 2023
10926 2.4243359400064444 -0.15625546526125214 6.0236612598057455 239 234 231 0.43291563293247154 103 479 102 390 101 441
12092 5.5290584343242042 1.4532558307152585 0.20900977513926799 20 15 6 0.97450297208522352 33 1407 76 1077 65 4680 1 4863 67 3108 36 2173 75 536 74 1176
10927 2.4326689327867963 -0.15293730151024282 6.0062019445616741 249 234 234 0.66677632841580525 105 330 102 391 101 442
12038 5.9566422209313199 2.462149397168119 3.9075327260450581 128 114 52 1.9424741960656973 33 456 77 587 76 409 86 1334 62 212
10929 2.4163631571213084 -0.1386577009294887 6.0298739829720409 187 177 175 0.28815524783048124 103 520 102 416 100 381
11523 6.2633027559157117 1.9468219422628574 -0.33354895240558968 186 165 162 1.1980333714229086 19 1861 20 1092 21 1517 22 961
10930 2.4258385234909001 -0.13081172359377163 6.0207318276955268 252 231 224 0.42982451058976201 103 526 102 428 100 398 101 503
14138 3.7343180637902358 6.1468851231008532 -2.3344415429157475 159 144 121 0.35838369622095856 9 1569 10 2519 11 2041
10933 2.2315404406528092 -0.10979088392831438 6.1487827366457815 252 246 234 0.34917600321403724 105 375 102 447 101 564 100 457
12036 4.8941165890865594 0.94105928548536888 0.62250857898580281 235 230 226 0.12280633513326233 77 860 76 376 68 2094
10935 2.0170289028019823 -0.099396513623410954 6.3215233076515691 176 161 142 0.16527330309564278 105 389 102 473 101 1752
12046 4.7864351898242976 -0.11028868847530378 0.70009971189253095 6 81 99 0.52739386564243629 77 701 76 505 68 2432
10937 1.6707866101284643 -0.088726981768643062 6.5774990164977671 18 2 0 0.78342986329860487 106 266 102 494 101 1773 100 1622 99 280
11531 5.7093265980495316 1.7853328715299246 -2.606253411314039 105 100 96 2.1183632650368178 189 1355 20 1253 21 1533
10938 2.6069795388543469 -0.081761090599241776 5.9039089259438731 237 252 241 0.34605280860038967 104 495 102 505 101 612 100 475
10943 2.1971608318267219 -0.074551313298652569 6.208906470533365 68 13 0 0.27324227234845538 103 1681 104 525 102 526
10946 1.9551995901477488 -0.028620313835803803 6.3595531680575714 198 186 160 0.42597311248782038 103 709 104 604 102 595 101 729 100 612 106 1111
14160 0.33387883775889349 6.3168580532942862 1.8684794546980006 187 181 167 0.6015706781530552 13 1166 11 2324
10947 3.1940805493972251 0.10229714628572333 5.8031820154058309 233 232 228 1.4354528494975751 103 808 102 692 97 688
13345 5.3015272313493069 2.5851553890732539 -4.2939262000118195 85 82 67 0.90774277552256655 72 2039 66 1751 1 2541
10948 3.2115104227717839 0.10062346897442695 5.8208772501971575 171 170 166 0.056761796684183879 103 812 102 695 101 1879
10949 3.0002357059241862 0.13908100956990121 5.9673122549472994 155 160 156 0.22450844619287696 103 819 102 700
12116 6.4763277378001733 0.1932768617799081 -0.38993492759596982 160 157 154 0.45044097384186815 189 188 72 181 70 919
10951 2.8074067060514936 0.68378310684179933 5.8438324505878976 153 114 73 0.14325700776699155 103 960 102 813
11301 1.6802139872829263 0.75157081505267131 6.5780790265147697 234 223 204 0.43533945253149198 103 3007 101 3128 100 2822
12126 5.793166793712631 1.8078860959796097 -2.36205881880303 52 36 8 0.84199397002236565 35 225 190 400 72 824
10953 2.864937903726799 0.68412750830575497 5.7959715862360968 144 154 119 0.3922105194888621 103 958 102 815 101 2497
13663 5.5245508265951093 0.92825452318199508 0.22621037160024779 72 60 44 0.33011396326468645 66 3190 1 4414 75 523
10958 1.6904663953308929 0.76249662964212128 6.5785081754943064 192 185 167 0.19053303272744485 103 1125 102 903 101 1097
12332 2.0195139151124502 6.2756255300426176 0.99146981479147422 203 187 162 0.52389404772725434 8 3115 21 1918 9 1398 10 2114 11 1881 22 1009
12124 5.5843084246809562 1.5019238558942969 0.15609494506384375 124 104 103 0.44168405489242019 76 421 72 719 69 1795
10959 2.430669327168371 0.77807300431261261 6.0923051843952845 107 8 20 0.40472300143482731 104 943 102 921 100 1024 101 1200
11309 2.9502213786916833 -0.38622553302021878 5.781316525152822 228 230 228 2.3843709031815563 102 2666 101 3217 100 3019
10962 2.6488483822268512 0.80776845860927704 5.9378588453315881 215 197 183 0.12936689772337226 103 1102 102 963 100 1107 101 1282
12336 2.4476795158265858 6.3052766860777947 0.5994867271251697 163 148 125 0.84370048604758385 7 1915 9 1410 10 1705 22 1016
11683 -2.4188545447040553 2.5604333691570917 2.1827060304186361 147 142 120 0.83266377105935929 14 860 13 559 12 963
10963 2.6432588150035032 0.8790449394044022 6.0124871539619447 154 138 123 0.80644193819157695 103 1181 102 1045 87 90
14170 3.8034727150402112 6.1897023360960866 -2.0544930322653991 179 164 141 0.22094889386476049 9 1981 10 2643 11 2387
10965 2.2125414864006312 -0.62026083520345443 6.3837979887317751 247 223 221 0.26511272659963958 104 1251 102 1202
12331 1.8636195775965418 6.2713328303790874 0.94119431024052469 172 160 134 0.91684893484233632 7 2185 9 1397 10 1686 13 731
12196 6.4179668490515436 0.096760273327306814 -0.32957241642660268 164 156 154 0.15599769564971544 34 87 21 859
10967 1.0549553880006219 -0.25972196835653533 6.9252419630107775 130 140 139 0.64076919701175616 103 1493 104 1377 102 1275
11317 2.2764487921135532 -0.03056005068945384 6.17767706073941 103 77 60 0.31224318859028893 102 2734 100 2940
10969 2.029542821630038 -0.20160952312339342 6.313109659144903 185 173 149 0.30246414367392777 103 413 102 1352 101 1646
12351 5.6512345946045643 1.5027760143104809 0.12641935718431882 108 100 107 0.74439394551859539 7 1395 9 1640 22 792
12206 4.3590986203691964 1.6890530296790014 0.75246973335397926 225 230 233 0.80927527170337277 19 1644 20 1082 21 1689 22 797
10974 1.9749110605522699 -0.15925240982051278 6.3447414899625141 201 188 172 0.85002696883243234 103 476 105 1112 102 1398 101 1691 100 1513
10975 2.5974512647976615 -0.16396358041513279 5.9231591451232024 207 207 205 0.19525374773143231 103 1622 104 1409 102 1399
11325 2.8159183540356216 0.88934820665420045 5.8385270803665117 130 120 93 0.35115427002607125 58 599 101 3363 86 113
12150 6.167565288891792 2.1816870245529336 -2.9286516074686868 192 185 166 1.0519800307835756 190 1108 72 2634 71 4514 70 5087
10977 1.9391202167485964 -0.1210415526790368 6.3657616350191804 119 104 81 0.61442638094371704 103 540 106 249 102 1421 100 1557
11635 1.8667401940564095 -0.6068597290446166 6.6410913078682654 149 145 136 0.43780283287187521 100 2703 99 2231 98 1318
10978 1.9391202167485964 -0.1210415526790368 6.3657616350191804 119 104 81 0.61442638094371704 103 541 106 250 102 1422 100 1558
14192 2.7323677418572592 5.9937148603053521 -2.7197469373007457 193 185 174 0.88892350009218057 9 2300 10 2914 11 2687
10979 2.4224952096518169 -0.11498189066450933 6.0174658236816478 187 117 115 0.57031583107371087 105 1615 102 1423 101 1714 104 448
10981 2.4430698088875644 -0.055814902429489548 6.0086828923163109 255 244 238 0.14972706847750269 103 1697 102 1481 100 1601
12158 6.7504525694308004 0.48730987845065188 -0.53693610008932813 194 185 168 1.0518143473510837 35 1602 72 3304 69 4864 68 3081
10985 2.2263428629450721 0.068634762482852829 6.4674817280943415 192 191 187 0.19153932440423396 103 1771 102 1544 101 1872 100 1706
11643 3.5072389574931724 -0.34645462597796106 5.6162238472627113 156 158 157 1.3777055985247963 40 44 100 3022 99 2340 98 1245 97 1334
10986 3.0251085044402939 0.078495572644111139 5.9431206712330766 207 208 204 0.061990591545380815 103 1772 102 1547 101 2415 100 2186
10990 2.424145510175145 0.62114631925058883 6.1013216764322555 178 151 128 0.15645290724825955 104 1588 102 1599
12156 6.7759960955935608 6.1404310617741382 -0.50889493550541942 141 129 117 1.2331257519874179 190 1141 72 3200 36 2072
10991 2.4255292242845794 0.63861254549751756 6.108737365820847 132 116 93 0.43528442760420777 103 1829 102 1603 101 1952
12102 9.2115827345583394 -0.30976847611379654 1.6783064017222968 55 49 37 1.2021500191356747 77 1510 76 1192
10993 2.0739945314992725 0.72401410935864075 6.2892571690890389 85 12 13 0.22679412290717882 103 1876 102 1648 101 1993 100 1809
11587 1.564696230546446 0.89818674300528223 6.6134859204857559 0 0 0 1.2106902415929925 103 3596 106 2930 107 1906
10994 2.1294823011020703 0.73775616837696911 6.2564414795146117 248 174 176 0.11931898647693118 103 1882 102 1659 100 1823
