# 3D point list with one line of data per point:
#   POINT3D_ID, X, Y, Z, R, G, B, ERROR, TRACK[] as (IMAGE_ID, POINT2D_IDX)
# Number of points: 360, mean track length: 5.1033555211087807
20040 0.15601803829810917 1.3395132948054072 -0.055090216923471713 145 125 99 1.4407782466633989 62 565 131 3908 122 3343 121 496 130 2565
20041 -0.0092981626078606772 1.2307142321370339 0.17854167005542593 143 141 64 0.50175385641359838 61 2441 62 1978 131 3926 130 2576
20042 0.95721501233990702 1.4665480651576948 0.58742116436016056 211 184 133 0.52831368777640952 59 993 131 4040 121 2906
20043 0.95471793333874655 1.4577575470120718 0.71862077464455776 63 41 4 0.40682736631806632 62 893 131 4078 121 4222 130 3915 120 4545 119 5367
20044 -0.95173110369149283 1.5087135447476199 0.47421182998306521 42 54 35 1.0955449640573982 62 2135 131 4107 2 789 122 4326 121 5601 130 4583 120 5865
20045 -0.040955196686708606 0.7323025199958475 1.4315829910422644 132 51 83 0.24878196225841043 132 3892 131 4118 121 5051
20046 -0.15557369377992139 0.74950015267085479 1.43407493244686 87 2 37 0.93761836772625196 62 965 131 4133 2 722 63 780 123 2222
20047 -0.1040706247140169 0.82231504509920395 1.5331423618944726 130 50 79 0.5785009461455537 62 1088 131 4239 63 923 130 4066 120 5485
20048 -0.16285850052656339 0.85016445880769032 1.5103306514067922 95 7 51 0.48249853236904011 62 1092 131 4247 122 4446
20049 0.052726951528783317 0.93579048353832439 1.5249010260057023 181 126 158 0.18923112676661302 60 2025 62 1147 131 4265 2 1038
20050 -0.70358840961738811 1.3356638802099756 1.2693427207396344 74 102 104 0.50663212357902887 132 4216 131 4345 2 1202 130 1607 121 1611 120 1760
20051 -0.75475549337638004 1.3717598729561069 1.2754614535066222 132 165 179 0.17719034198955963 58 2946 131 4357 130 1650
20052 -0.34741113916067357 1.7817875338880238 1.1852528687143027 71 87 84 0.60009485790330819 62 2407 132 4850 131 4388 63 3639 121 5303 130 4209 64 3320 125 3747
20053 -0.24532774203349333 2.1018148842365005 1.1847648462672105 111 137 137 0.66693106841074412 62 1429 131 4422 2 1474 63 2971 122 3934 121 4628 130 4249 120 4871 123 2053
20054 -0.15526090713826587 2.4318712953584085 1.2949745451926362 59 66 34 0.9233338527147229 62 2503 131 4465 122 4705
20055 -0.20247157370118132 2.3893081770601259 1.3336168659381629 64 73 40 1.565150951765987 61 2998 131 4470 122 4000 123 2134
20056 -0.049414798252723546 1.2968785430695031 1.9167105709615289 151 138 109 0.52601142560361946 132 3414 131 4523 122 4743
20057 -0.48185518824819351 0.91822021153639011 0.0066500349964598027 123 54 69 0.12266626373206709 62 2724 131 4587 64 2941
20058 -3.6672290081111925 4.2472542828136497 -6.5158162676025908 69 79 78 0.31058961110252342 62 2678 131 4595 130 3640
20059 -0.5383629436471884 1.0254939162296597 0.13213033208107361 177 134 125 0.75658044893954435 61 3923 131 4624 2 1951 62 2756 63 2125 122 4112
20060 -0.36541550208138618 0.90106862194219661 0.40939573049689193 154 80 95 0.53557063276724903 62 1942 131 4630 63 2113 122 4823 121 5484 130 4445 120 5747
20061 -0.53162840864751759 1.0138077297078547 0.22167107663666713 112 52 62 0.22438891519166418 62 2761 132 5392 131 4633
20062 -0.83609043824017171 1.4004976817012913 -0.38261430004969188 222 150 161 0.42281512203285038 62 1928 132 5037 131 4643 2 1997 122 4839 121 5497 130 4458
20063 -0.58971522225150075 1.3557345459173806 0.3178377454168837 101 50 38 0.35332558368179301 62 726 131 4699 122 4899
20064 0.97118731814139636 1.448873850905958 0.56794309600618398 198 171 124 0.30770640987977405 58 3308 131 4710 121 5033
20066 -0.4062129234326779 0.72833739861823465 1.4890545934586445 205 89 173 0.81676149713291468 60 3504 62 2191 131 4786 2 756 122 4363
20067 -0.35243041009196752 0.71181015285668781 1.5608378992576328 124 3 65 0.47396807856843132 62 2220 131 4805 2 807
20068 0.034785827228722616 0.94981063989657888 1.5329742079799893 34 24 10 0.2645470046946905 62 1156 131 4829 122 5074
20069 -0.70174455338813679 1.3332026740146741 1.1941005174326806 54 72 64 0.41607958947186252 62 2309 131 4853 122 5093 2 2359 121 5740 130 4112 124 4316 125 3971
20070 -0.61662660825197857 1.481936839688637 1.2190484807428086 130 167 185 0.53362875061418868 62 2357 131 4877 63 1352 2 1244 122 4563 124 3236
20071 -0.4907700053496859 1.6046736081044011 1.190621191370246 88 103 106 0.49535145093511396 62 3087 131 4885 2 2433 121 5272 130 4193 120 5568
20072 -0.16036729531407606 2.137047731106358 1.1432807368168798 37 57 45 1.1442428008986818 62 3598 131 4917 122 5556
20073 -0.033108542708809058 2.1994605786598549 1.2492456099926319 152 151 132 0.77973498885374803 61 3673 131 4937 122 4674
20074 -0.18178417041718808 2.2996162354324396 1.1761408687977453 91 101 93 0.21415087217831741 61 2956 131 4938 122 4670
20075 -0.18286302880676245 2.4347910671504249 1.2948705313672708 221 219 198 0.81824757862831454 61 3699 62 2507 131 4955 63 3064 122 4707 124 4190 123 2701
20076 0.33209624122696063 1.4578274819755574 1.8450735248174761 111 125 68 0.17768813607637679 61 1846 131 4963 121 4725
20077 0.34672119399526641 1.6245126456921772 2.014121003253615 195 176 142 1.2483906370277238 59 3113 62 2580 131 5005
20078 -0.10661304575925762 0.94295816036816016 -0.10060581346251377 37 47 1 0.41639865293330747 62 3308 131 5023 2 3212
20080 -3.730406933098954 4.2446277194911444 -6.5999784141014652 253 255 252 0.72407769715894665 62 3292 131 5035 121 4753 130 4411
20081 -0.50730393721199851 0.95534226166612035 0.20619747157491247 136 65 75 0.45247502767094178 62 3340 131 5043 2 2733 122 4808
20082 -0.6660700910526518 1.1228835811996831 0.12585822317120215 154 81 97 0.46981907290593045 62 3352 131 5059 122 4836 121 4843 130 3721 120 5086
20083 -0.69758205691332709 1.134329051944595 0.20250128114500676 162 89 101 0.016902328438260776 62 3355 131 5066
20084 0.97666072875232479 1.4323403606324991 0.55357272889012654 206 182 129 0.48862044990661879 62 2866 131 5105 121 5025 120 5306
20085 0.97178981855281354 1.3999625057697038 0.61092181996694317 205 179 128 0.3812335860460293 58 3819 131 5110 122 5378 121 5616 62 2873
20086 0.97168707474630045 1.436488695679323 0.59707594301545175 105 84 45 0.58694061512764961 58 3313 62 2877 131 5111 122 4352 121 5037
20087 -1.1184691421428974 1.4843234994292549 0.30037576203247507 51 59 36 1.1982289491365894 132 5136 131 5121 122 5346
20088 9.0035556414742555 8.6296823884790701 -5.746946265266657 206 182 136 0.68019426155652796 62 3450 131 5133 2 3668 63 4451 122 5054 121 5689 124 4439 123 2983 125 4098
20089 7.2691799495711615 8.6540098458906662 -4.5165246139636235 160 134 101 0.72702171828431339 62 3499 131 5166 2 3708 63 4483 123 3025
20090 -0.44637286254525216 0.78561530904702281 1.4976241381715178 130 5 66 0.40057211384563152 62 2972 131 5190 2 2895 122 5009
20091 -0.39610389533628226 0.7594159849551434 1.5337432059580383 162 130 11 1.19144354985225 60 4196 131 5193 2 2896 122 5401
20092 -0.78391673888934843 1.3733283261342342 1.2177240395094331 77 112 113 0.0047056964072943359 62 3547 131 5229
20093 -0.37305293405608708 1.7907192274373709 1.1705592265288109 66 88 86 0.51718049431193047 62 3582 131 5242 2 3463 63 4139 122 5529 121 6119 130 5154 124 4763 123 3372
20094 -0.31000073411188855 1.9409582460070984 1.2052120946638905 50 73 69 0.71754864755197834 62 3593 131 5252 122 5547 121 6134 130 5165
20095 0.31400826514957986 1.6534392386961065 1.8172245287088475 95 103 44 0.890219833687387 61 3713 131 5280 122 5607 123 3442 124 4828
20096 -0.086909095555637 1.3701602488135436 2.0253955166223303 52 53 29 0.90263207981175353 59 3641 62 3209 131 5297 123 3465
20097 -0.40891417820332215 0.92150229127254724 0.39932127644397264 149 81 94 0.83950883536996002 62 3743 131 5337 2 3569 63 4297 122 5646 121 6198 130 5274 120 6153 64 2962
20098 -0.62442455016529363 1.0936199366709791 0.15216794766418079 185 120 140 0.41714447458590787 62 3744 131 5343 121 5906 130 4459 120 5760
20099 -1.6941954295074018 1.4107939480948328 0.11727723648609867 72 79 46 0.96621643782248012 62 3390 131 5372 130 5525
20100 -1.3198018257869557 1.4448070038226573 0.23073852823344115 91 96 74 0.4875966752635591 132 5452 131 5382 2 3598 122 5683
20101 7.1815299922381497 8.5277229747548997 -4.3077210957365173 130 106 72 0.23618543259428468 62 3831 131 5420 2 3710 122 5111 121 6080 120 6337
20102 -0.47985308778858332 0.81283775021588467 1.5892064526321603 146 2 86 0.86835758988855805 62 3533 132 5708 131 5443 122 5439
20103 -0.67753401362468957 1.3162976473040895 1.2369435535044497 130 160 173 0.43956257851819419 62 3860 131 5452 2 3670 122 5755 123 3605 63 4410
20104 -0.47051700805843039 1.6030374251362105 1.1720476993028 116 147 162 0.59672661888279255 62 3880 131 5474 122 5781 2 3693
20105 -0.27911515485518062 1.9355761399121441 1.1902281453817873 112 137 135 0.75845967499655631 62 3898 131 5495 122 5546
20106 -0.15741749427969257 2.2862790170277729 1.20254802673295 158 160 147 0.77075119611613019 62 3902 131 5503 122 5575
20107 -0.061217439965256887 1.3267336080741834 1.8728687707538247 31 36 11 1.2482878383829088 59 3620 61 4205 131 5523 122 5601 123 3691
20108 -0.60554318904167981 0.9869360005086506 -0.01131919843791826 167 97 123 0.33320218964890286 62 3988 131 5552 2 3555
20109 -0.71340357751104189 1.2383281036916751 -0.26280784509215194 169 156 124 0.59823774967476595 62 3728 131 5556 2 3788
20110 -0.71340357751104189 1.2383281036916751 -0.26280784509215194 169 156 124 0.59823774967476595 62 3729 131 5557 2 3789
20111 -0.4417036135489269 0.94133407701718874 0.27379164535442646 119 67 89 0.81895348169239757 132 5622 131 5558 2 3240
20112 8.0664576069760923 8.5480851465716619 -5.0280357254082819 178 156 117 0.58630664599069793 62 4069 131 5615 2 3863 63 4712 122 5451 121 6057 123 3358 125 4340
20113 -0.23837090760667964 2.0834116947239982 1.2002123781204668 98 126 129 0.51758590309899866 62 4134 131 5690 122 5802 121 6343
20114 -0.64845147672311998 1.0095894159027266 -0.18290187815692138 148 92 116 0.55762977312600925 132 5775 131 5727 2 3775
20115 -1.5316995402503513 1.3975662471341717 0.19196211535172969 54 74 23 1.0235534510160156 62 4338 132 5934 131 5764 2 3980 63 4807 130 5526 3 3562
20116 6.2942929558545835 8.0014881328960747 -3.155683014111502 129 95 57 1.0638994062430227 62 4365 131 5798 121 6466
20117 -0.82006887350927204 1.2670660052932539 1.3176968406992722 225 218 197 1.1743420670981914 61 4711 62 4260 131 5812
20118 0.20377101776651263 1.2363291721003138 1.5410963484409075 126 137 83 0.46975662801965484 62 4262 131 5816 121 6604
20119 -0.36367995547573428 1.7632320026343449 1.1506221507712482 35 48 31 1.03668944064389 62 4266 131 5818 122 6061 2 4039 123 4006
20120 -0.45250931246000875 2.3917897268667083 0.87181159381602769 221 205 172 0.86568959425204484 131 5819 122 6063
20121 -0.13832196716197426 2.3204548434959085 1.2673209252588076 180 170 158 2.1138558344268468 61 4871 131 5825 122 5975 62 4140
20122 -0.40949778946590731 1.4351102447347053 1.9500299093936282 205 184 149 1.7396283083050486 60 5402 61 4889 131 5837
20123 -0.094000712422865451 2.1292785893976363 1.1419680282850666 24 39 10 1.2261507866232781 61 4864 62 4272 131 5904 122 6067
20124 -0.058145471701959536 2.1719666548697201 1.1836405216403918 73 78 48 1.0352927470485482 59 4712 61 4992 131 5906
20125 0.3244225714090691 1.3412060269803661 1.9036935645945361 210 183 140 0.50598816852759365 61 4997 131 5918 122 5981
20126 7.7207760474651019 8.4363652967953104 -4.3723007288038023 181 159 118 1.2926477783194679 61 5103 131 5953 2 4271 122 6137 121 6672
20127 -0.083107006942452641 0.78371166378160106 1.4487881297362457 69 38 0 0.80241463670822621 61 4964 62 4356 131 5954 63 5004 2 4120 122 6183 121 6716 130 5883 120 6871 64 4534 123 4107
20128 -0.89047243901538864 1.2373161348969988 1.2984796623474064 104 133 137 1.1951989017706142 62 4461 131 5967 121 6727 122 6195 130 5849 120 6878
20129 -0.40771279981576236 2.3253575864393632 0.98945962939565857 65 73 50 2.2507849029268661 62 4519 131 5970 122 6203
20130 -0.33615031087616237 0.92893119664126056 0.1857508850770484 191 147 174 0.65500830203057436 132 6054 131 5980 2 4190
20131 -0.66086631399758922 1.0382614513561839 0.087412036629977513 144 47 80 0.98939355595430423 62 4411 131 5982 63 5069
20132 -1.4950376727260042 2.0076883816678932 0.023287728665112806 234 231 226 0.14989707744596342 62 4597 131 6047
20133 -0.65298211211923596 1.1597928915834854 0.24136119300966824 187 108 126 1.6205611737526997 58 963 59 975 131 612 59 989 60 1352
20134 0.18554790260927945 1.7395663990647068 0.30583658685788873 43 51 45 0.42933979860398591 134 4023 132 683 131 1103 133 981 135 3562 136 3455
20135 -0.28029824995188146 0.94596051956095906 0.46989644139103248 93 16 26 1.7946577801858494 58 2464 59 2577 62 1964 131 3906 60 3150 61 892 2 465 63 469 2 474
20136 -0.40611588000635801 0.7608387941522996 1.5005071537622985 97 2 44 0.54125578732737423 57 1008 58 2713 59 2904 132 4715 131 4222 61 1579 62 2206 2 821
20137 0.90030635048162311 0.77106912309605113 0.46804411658381817 97 45 70 0.80505164369283921 57 287 58 308 131 4583 60 787 61 2277 62 1880 122 4122
20138 0.33727040138647207 1.6052404793960751 0.32913372114588219 36 52 21 1.5375205352442525 60 4494 132 5110 131 5117 61 3415 62 3419
20139 0.32199988011415609 1.6346344941907323 0.30242543218692924 179 174 156 0.96545158445359647 59 3839 132 5443 131 5118 60 4764 61 4371 135 7089 62 3416
20140 0.36451049236725225 1.4524554163846966 1.8410443220810928 43 65 17 1.1330206542785912 57 4800 58 4885 59 4805 60 5394 61 5069 62 4465 131 6006 133 6320 132 6081 122 6204 130 5898
20141 -0.83818797801338962 1.9337148976006024 -0.35278890006608388 0 0 0 1.1050638560039769 62 4596 132 6150
20142 12.543091237699215 6.102874243723897 -14.775922469313373 22 36 45 0.35044163527591926 53 3602 2 48 64 564
20143 12.751750815689411 6.1838551080541899 -14.738767325605281 66 89 103 0.42520468627215374 52 1954 144 1997 2 50 145 1573 63 330 64 586
20144 13.986201149468927 6.4750322734562298 -14.489609933390369 218 205 196 0.399043193649608 143 1589 2 85 64 673
20145 13.80376233804291 6.6996025240756296 -14.165706511790631 124 125 123 0.39546533101705045 144 2083 145 1642 2 116
20146 -1.0095043579629226 4.2883632329629302 -8.2942765830044731 71 91 92 0.35135003096041939 59 4 2 122 63 402 61 1978
20147 9.7317256067778288 6.4459265940674912 -13.424295357186104 53 85 94 0.2279423323002647 143 1767 2 125 64 735
20148 -0.84522586310793191 4.4268443614474577 -8.4236730424331689 49 69 69 0.3798141044173276 59 2155 61 1985 2 143 71 1761
20149 -0.89097064623412248 4.4230298336913609 -8.4283431658317056 127 146 149 0.67121457331301571 59 2154 2 147 63 432 72 1866
20150 -1.1498670342655668 4.3837330740655727 -8.1652948162570524 109 130 137 0.59618876980704738 62 100 2 167 63 456 64 643
20151 -1.1498670342655668 4.3837330740655727 -8.1652948162570524 109 130 137 0.59618876980704738 62 99 2 168 63 455 64 642
20152 12.404645791027271 7.2124115262256252 -14.314327633774228 201 229 227 0.6021731626359218 62 1711 143 1735 2 194 64 841
20153 -0.097230774647950421 0.89258497823503491 -0.10499932102956872 207 222 179 0.040361230912976061 60 699 2 200 63 200
20154 14.024042821694515 7.0271914605061898 -13.499575714653655 138 175 193 0.45772134994616659 62 113 144 2139 2 227 63 603
20155 12.755590294221381 7.1128915767196048 -13.525666775159822 53 89 105 0.44993830053415917 143 1734 144 2173 2 238 63 614 64 883
20156 -0.48083731894517701 0.89876643141266099 -0.028553745627753674 153 101 124 0.17577441379701986 131 3789 2 244 63 221
20157 11.726378646938763 7.1466693458889585 -13.365953765371296 79 104 108 0.50671888454456682 143 1817 2 254 64 897
20158 -0.17397402351932797 0.98707292520182055 0.20605469954780026 33 31 8 0.82557511775742487 62 475 2 376 63 392
20513 0.86530578618451925 0.76511398734592762 0.47339873175556635 129 73 98 0.21201409240685418 131 2586 122 3211 121 3896
20163 -0.53426887081357388 1.232823701286486 -0.1134216959375951 227 176 201 0.60191010145924828 1 851 2 446
20165 0.18242290567028735 1.229719428557573 0.030623901726989866 30 1 0 0.47653368427033893 131 471 2 486 63 587 122 396 121 3969 130 3732
20169 6.9399936328848808 7.9144959870517777 -9.0989542508119534 105 76 44 0.52711584318582982 61 276 2 609
21548 6.1064472021661498 9.3861522684499015 -11.788631397033393 17 5 0 0.087478052344382218 61 257 142 922 59 245
20174 -0.10572519785637899 0.7211135500688669 1.4103388049541969 169 85 135 0.56392734281569057 62 2157 2 663 122 4301
21552 0.29008510995262943 1.6355104826488829 0.30432804954450193 115 126 122 0.31819108939367396 143 2676 142 1820
20178 9.6892398532558381 9.1648106982153035 -8.6889881383804255 205 183 131 0.49870533142857226 143 2565 2 823 63 1288
20179 -0.037626274243787616 0.7834434489666241 1.5086991169025916 138 56 99 0.19459686625076178 62 1028 2 829 63 868
20180 10.528588204212308 9.0566750701797414 -8.0721381717351903 179 152 105 0.33803537771708125 60 459 2 893 64 1540
21547 7.5837009647209728 6.3809756344701976 -4.241663080817129 201 200 202 0.35881822864048524 50 1960 59 585 142 740
20181 9.7112172481308718 9.1947488837803775 -8.1334090245749646 205 178 125 0.41337516343184694 62 2032 2 918 63 2736 64 2728
21567 -0.54784099079759874 2.2218394355648585 0.92937232859331131 171 213 211 0.68615944717382793 140 1918 142 2988
20185 7.7195357368823672 6.0754196804468448 -3.8474107219298985 108 112 113 0.68828435134466392 60 710 61 2371 2 1040
20190 0.077186833713278613 0.96383476003278556 1.5771676157661125 187 119 142 0.38917567584693763 131 3357 2 1101 121 4500 130 3218
20192 -0.76058732561628561 1.2674793344649724 1.2093553848849885 30 65 77 0.4092977576220046 131 4303 2 1127 122 4488 63 1174
20193 -0.76058732561628561 1.2674793344649724 1.2093553848849885 30 65 77 0.4092977576220046 131 4302 2 1128 63 1175 122 4489
20194 -0.87371108445528933 1.2255887018186882 1.2604185719986214 82 119 146 0.61205235982520745 131 4316 2 1139 121 4429 130 3128 120 4688
20195 -0.69400012766890984 1.3336007091794473 1.2404575240571079 85 122 138 0.40011902671590677 62 2331 2 1188 122 3746 122 4516 130 3172 121 4467
20196 -0.11235469041335125 1.1775188802218324 1.5930930708295508 181 189 192 0.19031850097458167 62 2388 2 1261 63 1322 121 5319
20197 -0.47610281794881243 1.5607019869795753 1.2474582390492903 66 85 86 0.27489454865027924 62 2377 2 1304 122 3837
20199 -0.18648146079245728 1.2382846053833072 1.8145925906687992 144 149 144 0.23340863526166702 62 1476 2 1427 122 3982
20200 8.2213581478111859 8.5912073460580913 -3.3053229478561321 150 129 102 0.48091891582219021 62 1195 2 1434 63 1844
20201 -0.093887554864051495 1.2635100810808464 1.874215053590528 181 191 167 0.65734459526098543 131 4503 2 1489 121 5868 63 3662 130 4310 125 4054
20202 0.28595887004175524 1.5424754962159892 1.7607640440922174 229 219 190 0.69552884794497261 131 3627 2 1530
20204 0.29304132642675212 1.7273909517945563 1.8054262496948226 222 218 183 0.30053112652649533 62 2531 2 1620 122 4753 123 3131
20206 12.519916994490552 5.8521473944066189 -14.576164139112123 56 69 80 0.40860059772168872 56 320 2 1754 63 2062 64 2207
20207 13.523054393735196 6.7920815309796874 -14.680105444015348 27 42 56 0.19135828441830127 143 4583 2 1808 63 2182
20208 14.67549242775226 6.469643752035644 -13.838168632188403 158 204 226 0.82524604794206535 51 1953 2 1810 124 1758 125 20
20209 -1.0739072927282338 4.2945250223298812 -8.2376987176008907 127 146 150 0.60239657630178411 59 2152 2 1825 63 2148
20210 -2.1374260618982879 4.2949384168365494 -7.5188593700705146 170 187 198 0.2989352673277354 62 2647 2 1877 63 2199
20211 -2.0728775502505417 3.8705115311390221 -6.5877074976590757 169 186 196 1.6580298290095625 62 2648 2 1879 72 2711
20212 12.795536503670837 7.2510786373261675 -13.428252378476635 85 122 140 0.33005306689597741 58 58 62 126 2 1890
20213 11.971314709444645 7.2362139408796375 -13.383872909226969 63 104 111 0.60723693792482591 58 69 144 2222 2 1892 63 641 64 907
20214 9.8282401166739106 6.4584547126808101 -10.85525037196849 82 126 137 0.55688850566912185 61 54 2 1920 63 714
20215 -0.28397657773660051 0.84420514273979441 0.34474339731537851 126 60 76 0.17042554665709808 131 4605 2 1925 121 3844
20216 0.24560235042377593 1.185706448434656 -0.24569790028061073 216 219 217 0.41739072395223048 131 2636 2 1941 122 4125
20217 10.012957052093919 6.7286235090584272 -10.200835711728979 61 88 97 0.19181483886261261 58 139 2 1969 63 2395
20218 15.852753053313105 9.3642350867734283 -13.961556602622776 102 52 1 0.28388678358570746 59 2145 2 2005 63 2447
20219 8.3350171666513901 6.4423302941397731 -8.501769438387516 20 23 16 0.38814270910456034 60 67 61 193 2 2021 63 913 64 2514
20220 8.4221393972428977 6.7913077039026453 -8.2032825922738972 41 60 66 0.26220691875711011 60 2679 2 2049 63 3401 64 2546
20221 8.4995920811599515 7.086391128580412 -8.2682323118072532 49 67 69 0.93331597160025381 59 179 2 2063 64 3729
20222 11.621853708174692 9.3411410136836448 -10.959011685677494 201 168 101 0.33381412777850084 60 2702 2 2081 59 2269 63 2584 64 2613
20223 -0.052767134489958512 0.71105037173702312 1.4228000289650193 152 73 106 0.47434113029260916 62 2156 2 2115 122 4300 130 3895 120 5895
20224 -1.5712992854500731 1.508980409608381 0.22878781812526211 156 159 135 1.1049495476885818 131 3036 2 2121 63 2450
20225 6.8922822838767459 5.0986069930482412 -4.1475549572533339 63 43 16 1.2828750639106024 60 406 2 2132 142 1779
20226 -0.089147769488816073 0.74958325085206601 1.4224659589578637 53 1 7 0.28939111432586273 62 950 2 2135 122 4330
20228 -0.3948291929922022 0.75224913777083069 1.5180131717856742 85 2 51 0.39761265869385398 62 1065 131 4801 2 2189 63 2409
20229 -0.040047192560567546 0.79402001200063377 1.5126142442810901 83 1 38 0.58636990432240466 62 1047 2 2203 122 2515 120 5973
20230 8.8875092515580238 9.0585584017028733 -7.6711438043212485 214 188 131 0.90942331367951812 62 2842 2 2252 63 2756 145 4734 64 1621 144 3118
20231 0.10864116919706929 0.95892733750878867 1.5094787536936074 69 3 13 0.73110359082982646 62 2266 2 2296 122 4484 121 5745 130 5394
20232 7.3785171081169691 8.9714789894459201 -6.8570281555133716 165 138 85 0.50390226081314493 134 2569 2 2325 63 2838 64 2808
20233 8.8795923481993491 8.8334081240271054 -6.4361066178730351 190 171 138 0.89641589309856551 62 2112 2 2334 64 3441 142 1977
20234 6.4556825393289978 8.8658360128997611 -6.0075662735050246 188 156 105 0.42616611179360042 133 3952 2 2377 63 2890
20235 6.1739517988201609 8.8705852502543951 -6.0270400759814535 152 121 66 0.58306011835359628 133 2775 2 2379 63 2891
20236 5.8608077467417168 8.8035065043223408 -5.6835945144068276 180 147 94 0.69007076317970217 133 2794 2 2395 130 4018
20237 8.5822898102591516 8.8138198960425171 -5.286880056587357 143 128 97 0.45495429380257896 62 2926 2 2406 63 2923 64 1881
20238 7.8170782515078772 8.7153634526067538 -5.2105610443079069 140 123 93 0.70128162047973397 61 931 2 2409 63 2926
20239 7.036774669534009 8.8730746871834061 -5.3253587756021519 155 131 92 0.58401007713896391 62 3477 2 2416 63 3671 63 4168 123 1964
20240 -0.49061095684704831 1.6035462439301211 1.1908238987768591 75 100 107 0.51834518084068515 62 3086 2 2432 130 4194 120 5569
20241 -0.34827079188250526 1.7804472166623375 1.1868780259488136 68 88 90 0.63230836473439767 131 4389 2 2454 63 3638 121 5302 124 4430 125 3746
20242 -0.091461530895021709 1.2596910436300868 1.8590495999024848 139 147 133 0.60208254731361754 62 1500 2 2489 122 4709 121 5402 120 6120 119 5616 120 5681 117 5799
20243 0.39880821398432514 1.3977458314795475 1.8536944096128585 102 97 67 0.54652137945437662 62 1497 2 2504 63 3681 122 4710 125 4087
20244 0.18189080051363982 1.603625732226575 2.1171334656602219 178 175 156 0.54169518688233464 62 1663 2 2587 124 4587 125 4183 126 3897 3 1337 127 3404
20245 11.866681851743273 5.5793456756628022 -13.064770689809475 179 199 203 1.85968307284413 50 4388 2 2622 63 3194
20246 8.490542263303384 5.7209259892424873 -12.871387127727537 64 97 112 0.33411733527308968 54 3840 143 6156 2 2628 64 3574
20247 12.288099898353682 6.5036874609835875 -14.6738387313865 8 22 31 0.79640417503583283 54 1902 56 2440 2 2635 63 404 64 3092
20248 1.6396201465027009 1.1125764522135995 -1.6434130824258071 0 0 0 0.019734635746895237 1 1583 62 2616
20249 13.69601408265004 6.9065506308134497 -14.221976824153575 53 81 93 0.62324874099278338 54 3819 2 2666 124 2924 50 3888 123 1700
20250 12.691237131533484 7.1532031790371633 -13.749759400386315 206 234 244 0.40254679721682046 143 6163 2 2693 63 3269 62 3262 121 5475 64 3153 123 2282 125 3520
20251 8.0536228396418235 6.0134900642365041 -8.828877679837742 84 51 1 0.73136835188916416 62 2700 2 2753 64 3213
20252 9.7362908218655786 6.6337834020343287 -9.8235473569552099 0 22 33 0.088709741696563954 62 2702 2 2755 63 3343 64 2480
20253 10.136647265363127 6.6895282249863017 -9.6175695549372229 49 78 92 0.17250603190132255 61 3114 2 2761 63 3350 64 3228
20254 7.6665630698112555 6.5716532553359714 -8.8230648759307719 95 60 6 0.70059059546688307 61 3125 2 2777 63 3370 64 3248
20255 -0.70192168389537501 1.2034815467421442 0.14875601325533927 171 106 129 1.2380378698397991 62 2799 2 2782 122 4185 120 4185
20256 15.364671103824834 9.5992790793926055 -13.519615542403674 101 64 1 0.58718340752890819 58 2174 61 2047 2 2786 63 3384
20931 1.0271559190286401 1.2502580177230622 0.27169082020826957 81 17 15 0.45980730984819762 2 548 130 3765 120 2933
20257 0.45352258029145004 7.3014947994014801 -8.5168803749291957 99 93 79 0.70742619640231297 133 4729 2 2822 63 3424 61 2207 60 2850 130 3772 71 2693 72 3328 70 2828 175 1119 174 916
20266 7.1224634793078181 9.1507258228800659 -8.0004719358712322 121 89 40 0.81781794975607447 135 5528 2 2928 63 3558 64 3397 124 3330 125 3735 3 3231
21973 0.13392896710843227 1.2941044624178886 -0.31530869705945302 188 193 185 1.5154344495251628 161 2363 162 2486 111 4983
20267 8.1694993256289141 9.2292589707317543 -7.7445080784734284 136 113 61 0.54481469633950697 62 2847 2 2938 63 3568 64 3408 124 3336 120 5344 125 3742 126 3410 3 2838
21966 -9.5112048879451887 -2.7290157565754223 2.5443616239140874 172 165 146 0.8504650526334453 159 2691 162 2379 163 2708
20268 10.180728259094309 8.8475032794028436 -6.9643904899607341 219 194 158 0.26537944432201144 62 2852 2 2941 63 3584
20271 6.909041599475529 8.9075253370327712 -6.754015318835954 147 117 63 0.48318854984001985 133 3911 2 2963 63 3604 138 4713 139 3952 130 4612 64 3435 124 3356
21970 -10.942692428321267 -2.9962970016780703 0.97275422263442635 147 142 119 1.2793377489963642 161 2353 162 2472 164 1780
20272 8.7493866648734464 8.740326995385665 -5.7899807720698702 177 160 132 0.57521299281016014 62 2907 2 3002 63 2887 122 4466 131 5138 121 5693 124 3999 143 5179 123 2988 125 3777
20273 6.2050999820660877 8.920733331636205 -6.1592324652132229 186 155 100 0.76112946549875082 133 3957 2 3003 63 2884 130 4642
20281 8.6615598710442434 9.299619283260963 -9.1994299964958 162 137 90 0.61273075622373574 143 7185 2 3331 63 3503 64 3782 142 3801 3 3220
20284 7.3037418453268241 9.1785230136571769 -8.0820913738687601 162 129 78 0.68476762488110632 135 6254 2 3355 63 4091 64 3806 124 3957 125 4056 126 3775 3 3485
20287 7.6717880667997873 8.7330422955231519 -5.4279953122845832 170 150 123 0.66986335597919311 62 3465 2 3426 63 4162 64 3857 142 2793
20288 9.0675226284475947 8.6602783100366203 -4.4121218878275288 163 146 116 0.25909379508589114 61 3964 2 3449
20289 -3.9324849699498108 4.5547767460151007 -1.7687869726142567 245 250 253 1.871614742953629 131 4844 2 3452
20290 -0.39809349898845015 1.7928050443252015 1.171783845857516 34 57 57 0.58929373029073884 62 3583 2 3464 63 4140 122 5533 121 6122 130 5155 120 6369 64 3321 124 4764 123 3374 125 4321
20292 -0.18223468038061139 1.2633593736037867 1.8603838025536192 214 219 233 0.71373985934758832 62 3610 2 3482 63 4163 122 5818 124 4979
20293 7.8033372477480523 8.6064856302683985 -2.9328736431805691 116 88 51 1.361209448178639 62 3064 2 3486 122 4603 60 4023 59 3425 121 5794
20294 -0.23717534624568193 2.3670939411116168 1.2631361800647287 145 131 118 0.68498131110706439 131 5262 2 3501 121 5844 62 3157 120 6094
20296 -3.4216744688050618 4.0130211390834978 -6.5565500910333503 246 252 247 0.40178257359903918 62 3691 2 3548 63 4309
20297 8.4148223559173552 9.1920455836331545 -8.6004289504921552 174 148 99 0.92593080092082469 144 7582 2 3638 145 6666 63 4417 120 6263 64 4057 124 4393 125 4044 126 4039 3 3668
20298 -0.37708495744206993 0.7599954955436049 1.6066743138797519 109 0 59 1.0362258956731689 62 3848 2 3645 122 5919
20299 -0.3959166704902255 0.77862234272254904 1.6189451454759085 84 3 24 0.93860108076258031 62 4105 2 3646 122 6040
20300 9.4381657477355834 8.9791064120976465 -7.0742275262141332 217 196 150 0.57460222231955838 62 3779 2 3651 63 4430 122 5416 121 6022 64 4075 124 4414 123 2955 125 4320
20301 6.4245879568045297 8.8100324437445998 -6.2379130094593389 150 119 67 0.55371871491099445 133 5312 2 3665 63 4447 130 5351 120 5955 124 4440 126 4066
20302 8.8375915344354592 9.0092651358925373 -6.2189981429797019 189 170 130 0.20125418534344977 62 3799 2 3666 63 4699
20305 8.8233401729573533 8.5382492879904301 -4.4079107985480981 154 135 105 0.54887048818234152 62 3821 2 3704 63 4477 122 5466 121 5731 124 4475 140 3858 123 2557 125 4127
20306 7.2717244387757241 8.6655981895506411 -4.5222706612405537 141 120 92 0.61379433698604935 62 3500 2 3707 63 4482 123 3026
20307 0.18264871746571282 1.1638942426151884 -0.18476260729070426 151 147 133 0.71340166827318818 131 5553 2 3783 63 4779 122 5648 121 6382 130 5642 120 6693
20308 10.222953266022875 9.3546186619771845 -10.017353215412101 199 168 113 1.0174655030419013 60 4345 2 3817 63 4653 121 6247 120 6626 64 4229 124 4718 125 4283 126 4215
20309 -0.45309427324348239 0.78461544987743403 1.5935426181866319 196 112 190 0.50098027059395622 62 4104 2 3834 63 4619
20310 7.6471532857466915 9.048441105532909 -7.4599582588094817 173 146 91 0.5532427220924413 47 4716 2 3841 63 4679 64 4247
20311 9.1455403439406435 8.9251862303332619 -6.4574452681447134 196 177 137 0.80561394257387031 62 4227 2 3849 63 4689 64 4256 125 4526
20312 9.0075582968547927 8.8006682496864315 -6.3320667606864998 196 177 137 0.82220441364672081 62 4049 2 3850 63 4690 125 4525 62 4226
20313 6.2514288398785132 8.8524355882190271 -6.1811876791209315 184 153 96 0.25250844759838625 133 5635 2 3856 63 4700 130 5562
20314 9.7464750637961757 8.6661431818135597 -5.423929362695624 162 148 112 0.36178993275586507 62 3804 2 3859 63 4705 124 4772 123 2994 125 4333
20315 7.5504790173137231 8.2679004920452197 -4.6311237665935012 149 132 106 1.2356302408869928 62 3815 2 3866 125 4344
20316 7.7156759763485789 8.6483501888023024 -4.6942988670446466 109 92 65 0.45688463687029079 131 5411 2 3871 63 4720 122 5461 121 6069 120 6540 123 3370
20318 -0.33607873611494743 0.90113254230429851 0.39277737484880171 141 73 87 1.5944569001499376 131 5742 2 3957 122 5988 121 6513 64 4108
20319 7.8039998318248385 7.9103745788625695 -9.3738092824842987 68 33 1 0.64716632843300881 59 4492 2 3976 60 4902 120 6621 64 4489 125 4628 126 4337
20320 8.487059502976452 8.7731860445335013 -6.3563271947104614 205 184 141 0.62210938760026613 62 4228 2 4018 63 4691 122 5736 121 6273 124 4761 123 3334 125 4527 123 3633
20321 8.5483779237515165 7.3230046737950811 -4.5098382247149509 193 179 139 2.2030370840178439 62 4055 2 4021 63 4863 122 5926 121 6437 123 3636 125 4665 124 4976
20322 9.6732230411042845 8.8314792229252888 -5.6154324064680692 200 183 147 0.889738093054664 62 4237 2 4026 63 4866 122 5932 121 6285 125 4671
20323 0.39293453244654925 1.4850743634054189 2.0544399548220387 214 192 160 0.86851499649451358 62 4291 2 4066 63 4889 123 4037 125 4868
20324 8.5050061575309375 8.1554367434907817 -8.6071969987412391 170 144 93 0.92842471893684697 60 5076 2 4113 63 4934
20325 9.5932890789152587 8.8271301509529572 -6.6589557048565879 203 180 136 0.4393062625065336 62 4344 2 4138 63 4949
20326 8.4355780533252496 8.7714655118358671 -5.8495785294402571 189 169 132 0.37208595200502309 62 4347 2 4144 63 4954 122 5929 121 6436 64 4515 124 5145 123 3845 125 4670
20327 -1.4101240152639807 1.4869873349915488 0.27666384084368512 46 62 33 0.2862041465396794 132 6067 2 4203 63 5008
20328 9.7577949443344902 9.0853636075102262 -7.4458245634564504 209 187 137 0.76903662994459199 62 4431 2 4217 63 5032 121 6654 64 4594 124 5253 123 3993 125 4767
20329 8.9112759454037835 9.0248644433324721 -7.052070805080584 172 150 103 0.63735138709830985 62 4434 2 4222 63 5036 121 6657 64 4643 124 5258 123 3996 125 4770
20330 6.6190878624232052 5.0738521047939926 -4.1271085926529221 112 84 46 0.34690940491146893 62 4494 2 4253 122 6117 121 6649
20331 8.4465976509652698 8.4851519502131119 -5.3001970415951964 130 115 92 1.0606170797689047 62 4501 2 4265 63 5097 122 6131 121 6665 123 4079 125 4850
20332 7.9735479079364264 6.6221322887942469 -4.1778285375221049 57 41 18 0.82061295404538892 62 4498 2 4300 63 5137 125 4925
20333 12.046726522132678 6.4278069132388298 -14.765596609668464 2 5 14 1.5872269141189708 143 8628 2 4322 64 4708
20334 10.510093392355436 7.1692317420774394 -8.6514116962783465 236 212 142 1.9805067519953776 62 4594 2 4347 63 5183 122 6275 121 6815
20335 10.274859746121432 9.1374736692093546 -9.0091437702777171 241 228 197 0.86482628679691198 144 2866 145 2489 47 2454 143 2482 60 2779 2 2165 49 2664 139 3801 140 3147 48 2439 57 703 62 2810 63 2675 64 2678
20336 6.7218090047832328 4.9383152393125016 -4.0778687588566305 167 159 150 0.69082218546824636 145 2211 47 517 52 2226 50 1773 2 2851 59 3697 60 4354 62 3362 63 3455 122 4955 63 4026 121 5583 124 3885 123 2406 125 3665
20338 -0.64443111050386004 0.69464447915919014 0.10115775423080128 7 1 1 0.098139315971544017 2 98 63 97
20339 -0.69640684589530877 1.0295309301328897 -0.047174365018030476 161 104 134 0.51406141726623289 131 2655 63 309 122 3157 121 3824 130 3654
20340 0.21368292352710883 1.1143565402182525 -0.25834414920385851 220 225 220 0.30759091476582584 2 313 63 339 121 3856
20341 -0.86051248305990513 4.3663239535815928 -8.488356795525215 87 100 108 0.56059493695735674 2 118 62 1701 63 400 71 1758
20342 14.248648098420899 6.4557983558848697 -14.351464685983238 230 207 209 0.36458661879129917 2 1794 62 1684 63 418
20343 0.29485068522786689 1.0776931650460724 0.08115672306282487 163 135 150 0.28213699780004553 131 2678 63 452 122 1999
20344 -1.2232810248356047 4.3884311128663809 -8.132131846892408 135 149 153 0.53664121468255033 2 173 63 460 72 66 59 53
20345 -1.2173137708686719 4.3759353982573819 -8.1069947086585259 135 149 153 0.48395836428100408 2 174 63 461 72 67
20346 14.762261253216151 6.4671312724419918 -13.708715006205137 212 233 251 0.27922648177310533 2 110 62 58 63 494
20347 0.13738977729392871 1.2444742845564698 -0.12453512028270672 34 23 1 0.34111557879018811 2 1988 63 536 122 4172 121 4855 130 4448 120 5776 119 5675
20348 13.304508648767573 7.0043922937443233 -14.069930778432418 76 15 22 0.21295814904947288 144 2136 63 550 145 1711
20349 14.387453574845978 7.1589377356834776 -13.742146521395197 162 195 214 0.5004968290543822 2 229 62 114 63 606
20350 -3.3740395095165039 4.2908092860928324 -6.7514870659906858 119 129 130 0.92406931696922501 2 317 131 2612 63 613 122 3181 130 2382
20351 11.055026440816277 7.2041281366997572 -13.581735623962517 93 118 119 0.61159576790972825 2 251 62 1731 63 625
20352 -0.0062285195574759422 1.4353066042036093 -0.27147015166015204 231 226 205 0.42595264573571789 2 503 63 654 122 3322
20353 0.89816261756681648 1.1512614527778127 0.37282382429887662 141 103 100 0.20998099718702115 2 534 63 668 130 2585
20354 0.14768836471740687 1.3786206152846192 -0.11076307134945346 147 139 100 0.47099894881418158 2 514 63 670 122 3346 121 3980 130 2562
20355 12.271131788968706 7.0184713688509541 -12.595865941353461 71 109 128 1.0135880367309611 62 140 63 671 2 280
20356 -0.27973831942616312 1.4979370023107303 -0.12100863678605425 95 88 42 0.43509234440348638 2 557 63 756 122 2169
20357 -0.017880891711870628 0.73838918038194234 1.4647187089231877 92 20 58 0.27454528481769624 62 2168 63 791 122 4354 123 2234
20358 -1.5950606588499705 1.414332649705575 0.1456653863246074 116 131 108 1.0555983075096682 131 4023 63 800 130 652
20359 -1.6964303407567063 1.4979127743182352 0.16335714928058775 158 159 128 0.70780695746840161 59 1417 63 872 64 2289 3 1826 66 480 65 1500
20360 -0.10863150866482965 4.697950344153468 -4.3046914726658052 131 123 110 1.456249145488119 2 654 63 1073
20361 -0.14663311841285334 4.6344566127518902 -4.1767412614990151 83 75 60 1.5400074287793815 2 2114 63 1080
20362 6.8804351293662771 4.9991645998118441 -4.2585686704851637 157 143 122 0.60343069732861121 62 1971 63 1120 124 2165 123 336 125 2253
20363 6.7048936042725407 4.9344041164227672 -3.9309359739631149 122 102 74 0.71090369611632387 62 1989 63 1157 124 2193
20364 11.404431921002768 9.0961723222259838 -8.902066167971407 185 156 100 0.3875791657125493 61 394 143 2355 63 1251
20365 -0.74700334499763521 1.3654918915181686 1.2638782963842388 123 165 187 0.49916423686460765 62 1265 63 1296 122 3778
20366 7.5983319048276368 9.2029968435574627 -8.3884330206223741 131 103 53 0.40962234560910721 143 2847 63 1324 64 1532
20367 -0.61129930970455093 1.4765556780538291 1.2078595580311469 106 145 169 0.41907653775218251 2 1237 63 1341 122 2776 121 3380 130 1654
20368 10.233938405794152 9.2571201205356424 -7.8062206771938145 222 200 150 0.33240400043899082 2 2256 62 2049 63 1390 64 2762
20370 -0.084474194823138074 1.2468922812098899 1.8331915557157643 164 166 158 0.70642615798952868 2 1446 63 1583 124 3351 130 4294 126 3719 3 868 65 561
20371 -0.20772890822771034 1.2664968376928578 1.8346673443671759 148 152 156 0.54765349559387799 62 1502 63 1603 124 3994 123 2036
20372 -0.34418740871887354 1.9508729222125751 1.2296441821200219 41 69 72 0.85787793996666295 2 1439 63 1659 122 3920 62 1413 123 2616
20373 -0.2540570442076171 2.1038848159466252 1.1522801456861114 83 112 116 0.65895962209441183 2 1460 63 1712 130 3375 121 4622 120 4865 124 3488 123 2045
20374 0.35784215328448482 1.9831929924090186 1.3481930249236884 39 25 6 0.36517245493121603 2 1480 63 1723 124 3483
20375 8.1950853655284224 8.5423063135488739 -3.3221482562689344 83 63 30 0.20937649777265149 62 1187 63 1836
20376 -0.22685492001803975 1.4291132341754802 2.0392144326073391 127 122 118 0.57482299978379547 2 2577 63 1857 124 4574
20377 -0.23715043046231304 2.3890915551869925 1.2717976085822529 204 199 176 0.69780044922276541 62 1522 63 1868 122 3073 132 1902 121 3693 120 3916 123 2122 127 2961
20378 -3.4903153742367725 3.1136809207937937 -6.5574434984325203 70 74 73 0.75405406060958535 2 40 62 1673 63 2009 64 2131
20379 0.90826881630313228 0.81973977918115726 0.45614941680180943 138 125 116 0.71961545039574615 62 421 63 2080 130 3661 64 2017
20380 -3.4654354759385706 3.4367641329052132 -6.4428370961288168 83 91 93 0.65318929522433022 2 2651 63 2081 64 2187
20381 -0.32971129232275176 0.87617673422409614 0.40168185341356366 164 113 132 0.77901040742758798 62 2757 63 2089 121 4822 130 3685 130 4435 2 368
20382 14.118001741068998 6.2971647322227069 -14.170153291941862 81 84 81 0.1692244597801397 62 2603 63 2144 2 1786
20383 -0.64928927970761374 1.0995633648717789 0.12316634303879706 153 104 126 0.48899679763898485 2 1989 131 3899 63 2185 122 4138
20384 -1.6898601373073838 4.3296812913932987 -7.8402262838265617 170 187 200 0.48076879880519957 2 1855 61 3804 63 2186
20385 0.3551623384412736 1.0788517268928155 0.13229599895123412 18 20 0 0.47087126065232504 62 1923 63 2188 3 1720 66 222
20386 -2.0761484895097539 4.3126711470569967 -7.5895840270594421 168 186 198 1.2629597045591536 2 1873 63 2196 124 2868
20387 11.481828652590432 7.1480446431697802 -14.460314010321582 43 66 72 0.43412638231951095 2 1843 62 1707 63 2222 64 815
20388 14.184879719592628 6.9214669952743249 -13.414587714630319 88 102 105 0.34666449030003327 2 216 62 1715 63 2251
20389 12.189878666722105 7.1555862255659726 -13.741413395750802 75 103 108 0.15701433998350736 2 1876 62 1722 63 2259 64 872
20390 11.476081171160757 7.1814361898361438 -13.75859629219247 29 45 35 0.77517241604191878 2 234 62 2638 63 2261 64 3154
20391 -3.7242230784941537 4.2528151876064495 -6.6130519051079188 239 248 248 1.0930252262475342 2 1921 63 2272 72 1844 77 1767 78 430
20392 -3.6927101644495299 4.2757363518841078 -6.6037785557791215 18 32 35 0.97343143230031115 2 1928 63 2277 64 2344 72 1848 77 1769 78 1944
20393 0.14524849160993791 1.3466216141565157 -0.1237179195412164 154 136 105 0.18891499252684577 2 2014 63 2280 122 4197
20394 0.18278783731909648 1.30569034710368 0.03103166070527924 34 31 5 0.45672785926617765 2 523 63 2294 122 3352 121 4898 130 3745 120 5142
20395 -0.081041622184271078 0.736566413041713 1.4080459553815576 87 4 44 0.86327529432343975 62 2160 63 2343 121 5633 122 4310 120 5899
20396 -0.076485778848731187 0.74041180529217043 1.417812749649495 108 35 62 0.6030038138306999 2 2128 63 2355 122 4323 62 943 64 2978
20398 11.829166276759304 6.8425754992171663 -10.925080728489515 77 115 128 1.0774834953882564 62 188 63 2366 2 365 64 2455
20399 -0.27304134771369792 1.4953557811987803 -0.07766426236038132 88 86 29 0.012865037528363248 2 2054 63 2370
20400 -0.44316877979519359 0.77551708740697134 1.483739867983801 201 87 180 1.0111053720025582 62 2208 63 2413 122 5003 123 2792
20401 6.6461157351069868 4.1482956760586038 -3.8130625033228989 164 150 125 0.1199429572875136 2 577 63 2501
20402 7.7087130932209131 6.07832472124106 -5.1926579134279542 217 190 137 2.1608830702725732 2 754 63 2651 64 3760
20403 -0.29056377878204204 1.326500762487423 1.3111222868946004 117 26 85 0.26557040017837391 2 2388 63 2689 124 3844 123 2455
20404 10.964762036389823 9.122387930106342 -8.4965714345598542 218 190 142 0.26321075576465708 2 2196 62 2821 63 2690 64 2694
20405 10.899521188864792 9.0758318387096146 -8.4329381443006763 218 190 142 0.41757194855153013 60 3797 62 2822 63 2691 64 2695
20406 10.620987756581792 8.9596486416174308 -7.799858797937806 195 172 128 0.51880043320950098 2 906 60 2830 63 2733 64 2731
20407 -0.50495951513560766 1.6150078973559188 1.183147974838072 119 145 161 0.54107128830782691 2 3055 63 2799 124 3938 123 2991
20408 9.4560260322628817 8.9403729579276252 -6.8471052086762718 187 168 131 1.2685191632438635 2 2950 144 5382 145 4723 63 2819 48 1870
20409 10.000407575321189 8.933693574206325 -6.7734532054240884 205 184 141 0.78841999371593696 61 2363 63 2824 64 2805
20410 9.4719830785445875 8.8188407241521514 -5.9228026873559525 174 155 122 0.37273630991837647 61 2422 63 2878 59 710
20411 5.8971457606448308 8.8193552363287093 -5.860852691535487 176 146 96 0.78944820535696658 133 875 63 2899 130 4002
20412 0.36377775120343497 1.9786615870157649 1.3234612092173923 46 30 12 0.11638419293424729 62 1415 63 2961 130 4268
20413 -0.25305431814154816 2.1336787573120448 1.1590109329693854 52 81 85 0.509141651540722 2 2491 63 2972 123 2629
20414 0.33153546471393941 1.4092857972213801 2.0362426597404104 158 153 133 0.28427361451119521 2 1635 63 3029 64 2727
20415 -0.24827654684285977 2.3803598470072451 1.2661337745345962 103 92 74 0.42755838737180096 2 1602 63 3060 122 3067 121 3689 120 2386 64 2871
20418 13.130562607740021 5.577472938156065 -17.442505633703696 88 87 82 1.162868147058608 2 1720 56 3411 63 3135 64 3006
20769 7.9538359584372262 8.762823540166222 -3.1423799810117021 95 70 29 0.68369072183780311 59 3852 121 6108 61 4028
20419 0.90661973759341308 0.73755744574807314 0.54499905265015358 111 58 86 0.50149730146008564 2 1917 63 3174 130 4414 120 5748
20420 12.530451539153061 5.8803323622455581 -14.751611736176908 7 21 32 0.71688563318757581 145 5447 63 3180 64 3049
20421 10.417971119593306 7.0400536692818703 -13.493796351110902 46 68 74 0.49336835035669935 2 2691 62 1723 63 3267 64 3151 3 3099
20424 10.807764084909715 7.1021924747003018 -13.020486385258558 215 235 241 0.43458389330466679 2 2705 62 3270 63 3282 64 3179 126 3192 125 3535
20425 0.00034098352801756326 0.75684085909000287 1.4874487520100053 91 5 44 0.35284182865897135 62 2940 63 3340 122 4997
21804 0.39203218134567158 1.4397376661687324 1.8163447718038481 28 32 5 0.66054471828927719 160 1952 161 2077 86 2739
20430 -0.81617904892242654 1.2112179953998103 1.2497430631839981 71 96 107 0.21590218227440724 2 2975 63 3461 122 5446
21808 -10.858435752744418 -2.4123298119170551 0.98392374806082028 179 177 156 0.55631126294328392 160 2211 161 2120 163 2498 164 1586 167 460 166 385 165 776 169 1008 168 508 170 1461
20434 -0.58455499887841167 1.4587054983346168 1.2257296977582701 88 119 129 0.63609524566210562 2 3434 63 3536 122 5487 64 2517 124 4356 123 3324
20435 10.660366803913591 9.1375669702661462 -8.0587483358712824 218 196 149 0.24629456376842182 62 2832 63 3540 64 3389
20436 10.535498273241549 8.6487890620618657 -7.2352742833268602 186 165 122 1.3822219679404657 62 3766 63 3557 121 6013 122 5400 124 4739 125 4048
21803 0.35804369988554058 1.4500651386623222 1.9884939444207892 64 66 49 1.5965763162905136 159 2263 161 2073 162 2238 86 2740 113 5402 5 5476 4 2772 112 4739 85 2545 84 2118 79 3224 80 2792
20437 -0.49573679149994471 1.6094095888266486 1.1560017150438233 16 33 40 0.39408029203624961 2 2428 63 3574 122 5136
21823 -0.11871188784950279 1.3812614707642799 1.9314211051266308 45 55 31 0.72531844026695602 160 2299 161 2282 162 2440 86 2823 5 5528 114 5492
20441 8.5020586697208067 9.0286497962026377 -5.5204757148883621 149 132 104 0.36397500687729895 2 3032 61 904 63 3668
20448 0.14770706321133636 1.2950070548318176 -0.028025937018412009 36 7 1 0.5479655494982516 2 3574 63 3906 121 5924 130 4954 120 6177
20449 10.248017596055112 6.9707678670142981 -12.598259429185902 191 213 211 0.27188255817512358 2 3220 62 3682 63 3909
20450 0.074346014845828257 1.3998611730658896 -0.024280443043323177 33 36 7 0.56228130678994082 2 3282 63 3924 122 4876 121 5937 130 5287 120 6193
20451 -4.858878305897214 4.2928969447744736 -5.3276122529238075 254 255 250 1.4983997178188002 2 3269 63 3951 120 5070
20452 7.0446094982804199 5.384348546773766 -4.203589931025344 104 81 40 0.58582848952765709 2 3329 60 463 61 2236 63 4049
20453 9.7106891321045055 9.1090641494323048 -8.6348395067629582 224 204 151 1.4313570565120513 2 3341 62 3756 63 4067 64 3367 124 4388 125 4298 143 2573 141 3827 126 4037 120 6265
20454 -0.57414760442924018 1.4455437038739853 1.1993442978774127 130 162 183 0.61390733586602642 2 3423 63 4078 122 5765 123 3315
20455 6.6630004180528477 8.906388305398071 -6.4593005525603306 181 150 93 0.49087845020082421 2 3658 133 4784 63 4135 124 4433
20456 -0.31535019427167782 1.4360873511123753 1.9146688935641603 132 122 120 0.070213575098343875 62 3639 63 4207 123 3459
20457 0.34375510877448362 1.4858146559663934 2.0549457167815999 210 190 165 1.4011850882375902 2 3160 63 4233 125 4385 124 4564
20458 10.56957278617257 3.1528046633057301 -16.447843463432914 168 185 193 0.63314563047674755 143 6839 63 4256 64 3878 3 3288
20459 7.271245649597982 5.6279358578738643 -4.3683583989459898 216 193 143 0.51260777285999382 61 4296 63 4412 60 3819
20460 -0.53159603023249735 2.2421882204692563 0.93794509276121274 46 49 20 0.45859045705567991 2 3476 63 4470 64 4242 124 5160 125 4680
20461 0.42273046853127022 1.4168609247423358 2.020146673278818 218 197 168 1.0595874327593993 2 3508 63 4505 123 3715 58 2936
20462 -0.28913788254141737 2.6095667884256528 0.92220511955795681 86 89 60 0.76253512183045291 2 3495 63 4506 124 5030
20463 -0.46544203128760459 0.83077824894585628 -0.19286247567914883 107 17 36 0.1028681606972876 2 3769 63 4536 64 3476
